2.20799994 -4.41699982 11.27900028
2.24099994 -4.33799982 11.22000027
2.25300002 -4.30900002 11.22599983
2.18600011 -4.43599987 11.28800011
2.19300008 -4.41900015 11.28400040
2.21900010 -4.35699987 11.22999954
2.22199988 -4.34899998 11.21899986
2.23900008 -4.30800009 11.23299980
2.24099994 -4.30600023 11.21800041
2.16700006 -4.44199991 11.29100037
2.06699991 -4.69299984 11.06499958
2.20400000 -4.35500002 11.22099972
2.22099996 -4.31400013 11.23600006
2.22600007 -4.30200005 11.22799969
2.16300011 -4.43400002 11.30900002
2.16499996 -4.42899990 11.29500008
2.21600008 -4.30800009 11.23499966
2.14700007 -4.43800020 11.30900002
2.19400001 -4.32399988 11.27700043
2.19799995 -4.31599998 11.26700020
2.19899988 -4.31300020 11.25199986
2.57100010 -4.32399988 11.42500019
2.56999993 -4.32900000 11.40400028
2.57399988 -4.32299995 11.28899956
2.57500005 -4.32000017 11.27499962
2.57399988 -4.32299995 11.22099972
2.69499993 -4.04699993 11.15600014
2.55599999 -4.32399988 11.44900036
2.54699993 -4.34800005 11.36400032
2.55500007 -4.32800007 11.36100006
2.55599999 -4.32700014 11.34500027
2.55800009 -4.32200003 11.33199978
2.56699991 -4.30200005 11.31299973
2.58299994 -4.26499987 11.32400036
2.55999994 -4.32100010 11.23099995
2.62199998 -4.18100023 11.08100033
2.67199993 -4.06500006 11.14999962
2.52699995 -4.37400007 11.41100025
2.53900003 -4.34700012 11.39700031
2.54800010 -4.32499981 11.39700031
2.54999995 -4.32200003 11.38199997
2.54999995 -4.32100010 11.36600018
2.55299997 -4.31400013 11.35299969
2.55500007 -4.31199980 11.33800030
2.58299994 -4.24599981 11.35400009
2.58200002 -4.24800014 11.33600044
2.55299997 -4.31899977 11.23099995
2.66000009 -4.07399988 11.14200020
2.52800012 -4.33599997 11.44699955
2.53600001 -4.31899977 11.44299984
2.53699994 -4.31599998 11.42800045
2.53800011 -4.31500006 11.41199970
2.53999996 -4.31099987 11.39700031
2.54299998 -4.30399990 11.38700008
2.54500008 -4.29899979 11.37300014
2.60400009 -4.16099977 11.46100044
2.58500004 -4.20699978 11.40900040
2.58299994 -4.21099997 11.38899994
2.58100009 -4.21600008 11.36800003
2.53800011 -4.32000017 11.23799992
2.60200000 -4.17700005 11.09099960
2.52300000 -4.31300020 11.49300003
2.52399993 -4.31099987 11.47700024
2.52500010 -4.30999994 11.46000004
2.52699995 -4.30600023 11.44600010
2.52800012 -4.30200005 11.43200016
2.52999997 -4.30000019 11.41600037
2.53099990 -4.29799986 11.40100002
2.58500004 -4.17100000 11.44699955
2.57999992 -4.18300009 11.42000008
2.57699990 -4.19000006 11.39700031
2.52099991 -4.32299995 11.24499989
2.52500010 -4.31599998 11.23400021
2.63299990 -4.06699991 11.19999981
2.51699996 -4.30600023 11.49400043
2.51900005 -4.30100012 11.47999954
2.51999998 -4.29899979 11.46500015
2.52300000 -4.29400015 11.45199966
2.52300000 -4.29400015 11.43400002
2.57999992 -4.16099977 11.46700001
2.57900000 -4.16499996 11.44799995
2.51500010 -4.31899977 11.24499989
2.51799989 -4.31199980 11.23299980
2.50999999 -4.28800011 11.49199963
2.51200008 -4.28599977 11.47599983
2.56599998 -4.15899992 11.48700047
2.56900001 -4.15199995 11.47599983
2.50099993 -4.31500006 11.24899960
2.46000004 -4.42700005 10.69900036
2.55200005 -4.15700006 11.49699974
2.55399990 -4.15199995 11.48400021
2.48699999 -4.31500006 11.25800037
2.45099998 -4.41300011 10.70100021
2.54600000 -4.15000010 11.50000000
2.47499990 -4.32100010 11.25000000
2.56800008 -4.11000013 11.12100029
2.55800009 -4.13399982 11.08600044
2.54600000 -4.12300014 11.14799976
2.55100012 -4.11299992 11.13899994
2.56100011 -4.09000015 11.13899994
2.54500008 -4.12799978 11.09399986
2.53800011 -4.10699987 11.17199993
2.53800011 -4.10699987 11.15499973
2.53900003 -4.10599995 11.13799953
2.54999995 -4.07900000 11.14099979
2.53099990 -4.12400007 11.09099960
2.53200006 -4.10200024 11.13899994
2.54500008 -4.07000017 11.14599991
2.52500010 -4.11899996 11.09300041
2.42499995 -4.31199980 11.27600002
2.42799997 -4.30499983 11.26399994
2.52800012 -4.07100010 11.21899986
2.52399993 -4.08099985 11.19400024
2.32800007 -4.38899994 11.67300034
2.33400011 -4.37500000 11.66600037
2.23699999 -4.56699991 11.74899960
2.24200010 -4.55600023 11.73900032
2.24600005 -4.54600000 11.73099995
2.25300002 -4.53100014 11.72500038
2.25699997 -4.51999998 11.71599960
2.30599999 -4.40500021 11.68599987
2.21700001 -4.57999992 11.76599979
2.22099996 -4.57000017 11.75699997
2.27200007 -4.43300009 11.68599987
2.24900007 -4.39799976 12.16600037
2.24399996 -4.39200020 12.16699982
2.23300004 -4.43300009 11.67700005
2.23499990 -4.38199997 12.16300011
2.24000001 -4.37099981 12.15499973
2.22799993 -4.36199999 12.17199993
2.21700001 -4.33500004 12.11400032
2.22199988 -4.32499981 12.10499954
2.22600007 -4.31500006 12.09500027
2.22799993 -4.30999994 12.08100033
2.17700005 -4.44500017 11.67399979
2.19600010 -4.34899998 12.10900021
2.20199990 -4.33400011 12.10400009
2.18000007 -4.36999989 12.12300014
2.18400002 -4.35900021 12.11400032
2.19000006 -4.34499979 12.10700035
2.15899992 -4.38399982 12.13300037
2.14100003 -4.44199991 11.68200016
2.17799997 -4.29099989 12.34000015
2.18400002 -4.26100016 12.34300041
2.13100004 -4.39499998 12.14299965
2.09999990 -4.42399979 12.48400021
2.14700007 -4.31300020 12.37699986
2.16400003 -4.27299976 12.35599995
2.16499996 -4.27099991 12.34000015
2.12100005 -4.33799982 12.39900017
2.10500002 -4.35699987 12.41100025
2.10800004 -4.34999990 12.39900017
2.15300012 -4.23899984 12.47299957
2.08100009 -4.44000006 11.68900013
2.08999991 -4.36000013 12.40999985
2.14000010 -4.23400021 12.49699974
2.14700007 -4.23600006 11.90400028
2.15499997 -4.21600008 11.90299988
2.00600004 -4.52600002 12.50899982
2.12400007 -4.23699999 12.49899960
2.12700009 -4.24700022 11.91800022
2.13100004 -4.23899984 11.90600014
2.03800011 -4.42999983 12.47700024
2.02300000 -4.43100023 12.47900009
2.00399995 -4.44399977 12.47999954
2.03500009 -4.36700010 12.41800022
1.99199998 -4.45200014 12.49400043
2.02399993 -4.37300014 12.43400002
2.66899991 -4.21799994 11.70100021
2.67300010 -4.20900011 11.68999958
2.65899992 -4.20699978 11.67800045
2.58999991 -4.32000017 11.98499966
2.61100006 -4.27799988 11.73600006
2.64599991 -4.19999981 11.67599964
2.64100003 -4.21099997 11.64900017
2.64199996 -4.21199989 11.63099957
2.58899999 -4.30399990 11.97700024
2.60400009 -4.27699995 11.71700001
2.64400005 -4.18599987 11.68400002
2.63100004 -4.21799994 11.62500000
2.57800007 -4.29500008 11.97099972
2.56399989 -4.33199978 11.76500034
2.56500006 -4.32999992 11.74899960
2.56399989 -4.33300018 11.72900009
2.58299994 -4.28999996 11.71100044
2.58400011 -4.28800011 11.69499969
2.61299992 -4.22300005 11.60700035
2.56599998 -4.28800011 11.96500015
2.55500007 -4.32000017 11.72999954
2.55500007 -4.32100010 11.71199989
2.56599998 -4.29699993 11.67899990
2.59699988 -4.22499990 11.59599972
2.56599998 -4.26999998 11.96199989
2.54699993 -4.32000017 11.69400024
2.58500004 -4.23600006 11.58600044
2.55399990 -4.26399994 11.95699978
2.52900004 -4.32999992 11.62399960
2.53600001 -4.26800013 12.03499985
2.54299998 -4.25299978 11.99400043
2.54500008 -4.24900007 11.97900009
2.54699993 -4.24499989 11.96500015
2.54900002 -4.23999977 11.95100021
2.52699995 -4.29899979 11.64099979
2.52800012 -4.29699993 11.62600040
2.52500010 -4.30600023 11.55000019
2.52399993 -4.30999994 11.52799988
2.52399993 -4.31099987 11.51099968
2.52999997 -4.26200008 12.03600025
2.53099990 -4.25899982 12.02000046
2.53500009 -4.25099993 12.00899982
2.53600001 -4.24900007 11.99300003
2.53699994 -4.24599981 11.97700024
2.53999996 -4.24100018 11.96399975
2.54099989 -4.23799992 11.94900036
2.54500008 -4.23000002 11.93599987
2.51900005 -4.29799986 11.63799953
2.51999998 -4.29600000 11.62300014
2.51900005 -4.29899979 11.60299969
2.51900005 -4.29899979 11.58500004
2.51699996 -4.30399990 11.56499958
2.51600003 -4.30700016 11.54399967
2.51500010 -4.30999994 11.52499962
2.51600003 -4.30800009 11.50899982
2.52600002 -4.23899984 11.94900036
2.52999997 -4.22900009 11.93900013
2.53600001 -4.21600008 11.93099976
2.50600004 -4.29500008 11.62500000
2.50399995 -4.29899979 11.60400009
2.50300002 -4.30200005 11.58500004
2.50300002 -4.30299997 11.56700039
2.50300002 -4.30399990 11.54899979
2.50300002 -4.30299997 11.53199959
2.50500011 -4.30000019 11.51700020
2.50699997 -4.29400015 11.50399971
2.54500008 -4.15899992 11.96899986
2.52699995 -4.20400000 11.91499996
2.53600001 -4.18200016 11.91499996
2.49399996 -4.28800011 11.65600014
2.49300003 -4.29099989 11.63700008
2.49200010 -4.29300022 11.61699963
2.49099994 -4.29600000 11.59799957
2.49000001 -4.29799986 11.57900047
2.49000001 -4.29899979 11.56099987
2.49200010 -4.29600000 11.54599953
2.49399996 -4.29199982 11.53299999
2.49699998 -4.28299999 11.52200031
2.49900007 -4.28000021 11.50699997
2.53200006 -4.17000008 11.95699978
2.53200006 -4.17000008 11.93900013
2.51699996 -4.20499992 11.89299965
2.51799989 -4.20400000 11.87699986
2.48699999 -4.28200006 11.69299984
2.48600006 -4.28399992 11.67300034
2.48499990 -4.28700018 11.65400028
2.48399997 -4.29099989 11.63399982
2.48399997 -4.29099989 11.61600018
2.48399997 -4.28999996 11.59899998
2.48499990 -4.28900003 11.58399963
2.48000002 -4.30100012 11.55700016
2.48399997 -4.29300022 11.54500008
2.48900008 -4.28100014 11.53800011
2.54399991 -4.15299988 11.51500034
2.53399992 -4.12900019 11.95800018
2.50300002 -4.20499992 11.86299992
2.49900007 -4.21500015 11.83699989
2.49600005 -4.22399998 11.81200027
2.47199988 -4.28000021 11.71500015
2.47099996 -4.28299999 11.69600010
2.47199988 -4.28299999 11.67899990
2.47099996 -4.28499985 11.65900040
2.47099996 -4.28499985 11.64299965
2.47300005 -4.28100014 11.62800026
2.47000003 -4.28900003 11.60400009
2.46300006 -4.30600023 11.57400036
2.46499991 -4.30200005 11.56000042
2.53299999 -4.14400005 11.52600002
2.46600008 -4.25500011 11.90499973
2.46799994 -4.25000000 11.89200020
2.47399998 -4.23600006 11.88500023
2.48000002 -4.22399998 11.85999966
2.48399997 -4.21500015 11.84799957
2.48499990 -4.21199989 11.83399963
2.48300004 -4.21799994 11.81200027
2.47499990 -4.23799992 11.77799988
2.46099997 -4.27199984 11.73400021
2.46000004 -4.27500010 11.71399975
2.45799994 -4.27899981 11.69299984
2.46000004 -4.27600002 11.67800045
2.46000004 -4.27600002 11.66100025
2.46099997 -4.27299976 11.64599991
2.45300007 -4.29199982 11.61299992
2.44600010 -4.31199980 11.58100033
2.45000005 -4.30299997 11.57100010
2.51999998 -4.13800001 11.54300022
2.52300000 -4.13199997 11.52999973
2.45499992 -4.26000023 11.93400002
2.45799994 -4.25299978 11.92199993
2.45900011 -4.25099993 11.90600014
2.45700002 -4.25600004 11.86600018
2.51799989 -4.11100006 11.96399975
2.45600009 -4.26200008 11.77499962
2.45400000 -4.26900005 11.75199986
2.45199990 -4.27400017 11.72999954
2.45199990 -4.27299976 11.71399975
2.45300007 -4.27199984 11.69699955
2.45300007 -4.27099991 11.68000031
2.45499992 -4.26700020 11.66600037
2.45199990 -4.27600002 11.64200020
2.43499994 -4.31699991 11.59300041
2.43799996 -4.30900002 11.58100033
2.48300004 -4.14400005 12.42800045
2.43899989 -4.26499987 11.79500008
2.43799996 -4.26700020 11.77600002
2.43799996 -4.26900005 11.75699997
2.43899989 -4.26599979 11.74199963
2.43899989 -4.26499987 11.72399998
2.41199994 -4.33300018 11.63700008
2.41199994 -4.33199978 11.62100029
2.41599989 -4.32399988 11.60900021
2.45499992 -4.23199987 11.66399956
2.46900010 -4.14300013 12.41800022
2.42499995 -4.26499987 11.80300045
2.42600012 -4.26300001 11.77000046
2.42799997 -4.25899982 11.75500011
2.42300010 -4.27099991 11.72799969
2.39100003 -4.34899998 11.64999962
2.39299989 -4.34499979 11.63500023
2.39700007 -4.33500004 11.62500000
2.44899988 -4.21099997 11.67000008
2.46300006 -4.14099979 12.41499996
2.42000008 -4.25799990 11.81999969
2.42000008 -4.25899982 11.80200005
2.42100000 -4.25699997 11.76900005
2.41599989 -4.26999998 11.74100018
2.38100004 -4.35400009 11.65699959
2.38299990 -4.34999990 11.64400005
2.38800001 -4.33799982 11.63500023
2.44300008 -4.20900011 11.66699982
2.44499993 -4.14499998 12.39599991
2.40400004 -4.26000023 11.78699970
2.35299993 -4.38299990 11.65400028
2.43300009 -4.19299984 11.66399956
2.43000007 -4.14799976 12.38300037
2.39400005 -4.24499989 11.87600040
2.39100003 -4.25400019 11.83399963
2.39199996 -4.25299978 11.81700039
2.34200001 -4.37500000 11.66800022
2.42000008 -4.19199991 11.67199993
2.42400002 -4.18100023 11.66399956
2.42199993 -4.14699984 12.39900017
2.42199993 -4.14699984 12.38199997
2.38800001 -4.24200010 11.89400005
2.33599997 -4.36999989 11.70499992
2.41799998 -4.17600012 11.66499996
2.40400004 -4.15399981 12.36800003
2.37400007 -4.23899984 11.88700008
2.37299991 -4.23999977 11.86900043
2.37500000 -4.23699999 11.85499954
2.37700009 -4.23299980 11.84000015
2.40599990 -4.17000008 11.66199970
2.38899994 -4.15399981 12.36100006
2.36299992 -4.22700024 11.96100044
2.35899997 -4.23799992 11.93500042
2.39199996 -4.16599989 11.67599964
2.39700007 -4.15600014 11.66699982
2.37899995 -4.15600014 12.35099983
2.35800004 -4.21600008 12.01599979
2.35700011 -4.22100019 11.99499989
2.35599995 -4.22399998 11.97500038
2.35299993 -4.23000002 11.95199966
2.35200000 -4.23400021 11.93200016
2.35299993 -4.23199987 11.91600037
2.35599995 -4.22900009 11.81299973
2.38800001 -4.15500021 11.67800045
2.39000010 -4.15199995 11.66300011
2.36199999 -4.16099977 12.36699963
2.35899997 -4.16699982 12.34399986
2.36100006 -4.16300011 12.32900047
2.31800008 -4.27600002 12.05900002
2.33999991 -4.22100019 12.08399963
2.34100008 -4.21899986 12.06900024
2.34200001 -4.21799994 12.05200005
2.33899999 -4.22499990 12.02799988
2.32999992 -4.24800014 11.99199963
2.33699989 -4.23199987 11.98799992
2.33800006 -4.23000002 11.97099972
2.33599997 -4.23400021 11.94999981
2.33800006 -4.23099995 11.93500042
2.33999991 -4.22599983 11.92199993
2.34299994 -4.21899986 11.90900040
2.34999990 -4.20200014 11.90499973
2.35599995 -4.18900013 11.89799976
2.33599997 -4.23799992 11.82400036
2.37700009 -4.14400005 11.67000008
2.35899997 -4.12900019 12.42399979
2.35200000 -4.14699984 12.39000034
2.33899999 -4.17899990 12.31000042
2.32500005 -4.21700001 12.15299988
2.32399988 -4.22100019 12.13199997
2.32599998 -4.21700001 12.11699963
2.32299995 -4.22300005 12.09500027
2.31399989 -4.24800014 12.05700016
2.31399989 -4.24700022 12.03999996
2.31399989 -4.24900007 12.02099991
2.32500005 -4.22100019 12.02499962
2.31599998 -4.24300003 11.98999977
2.31900001 -4.23799992 11.97599983
2.32800007 -4.21500015 11.97700024
2.32900000 -4.21500015 11.95899963
2.32999992 -4.21099997 11.94499969
2.33200002 -4.20599985 11.93099976
2.35400009 -4.15600014 11.93500042
2.32699990 -4.22399998 11.82999992
2.36500001 -4.13700008 11.67000008
2.30500007 -4.23500013 12.51299953
2.35400009 -4.12200022 12.42500019
2.32599998 -4.19099998 12.27799988
2.31599998 -4.21899986 12.18299961
2.31599998 -4.21999979 12.16499996
2.31599998 -4.21999979 12.14700031
2.31699991 -4.21899986 12.13000011
2.31800008 -4.21700001 12.11400032
2.31900001 -4.21500015 12.09700012
2.31900001 -4.21500015 12.07900047
2.31900001 -4.21600008 12.06200027
2.31800008 -4.21899986 12.04100037
2.30599999 -4.24900007 11.99899960
2.31399989 -4.23000002 11.99600029
2.32699990 -4.19899988 11.98600006
2.32399988 -4.20599985 11.96300030
2.32900000 -4.19500017 11.95400047
2.35400009 -4.13600016 11.96500015
2.35200000 -4.13999987 11.94499969
2.31999993 -4.21999979 11.82900047
2.29099989 -4.23500013 12.51900005
2.29200006 -4.23299980 12.50300026
2.30900002 -4.20100021 12.25699997
2.30200005 -4.21899986 12.22500038
2.30299997 -4.21600008 12.20899963
2.30299997 -4.21799994 12.18900013
2.30200005 -4.21999979 12.17099953
2.30399990 -4.21600008 12.15499973
2.30399990 -4.21700001 12.13700008
2.30500007 -4.21400023 12.12100029
2.30599999 -4.21299982 12.10400009
2.30699992 -4.21099997 12.06999969
2.29299998 -4.24700022 12.02400017
2.29900002 -4.23299980 12.01700020
2.34699988 -4.11700010 11.98499966
2.34599996 -4.12200022 11.96399975
2.39899993 -3.99000001 12.05099964
2.27800012 -4.23099995 12.49600029
2.27999997 -4.22599983 12.48299980
2.28699994 -4.21600008 12.23700047
2.28900003 -4.21400023 12.22099972
2.28900003 -4.21400023 12.20300007
2.28900003 -4.21500015 12.18500042
2.28800011 -4.21700001 12.16499996
2.29200006 -4.20800018 12.15400028
2.29200006 -4.20900011 12.13500023
2.29600000 -4.19999981 12.12500000
2.26900005 -4.26700020 12.03499985
2.27300000 -4.25600004 12.02600002
2.46099997 -3.79699993 12.28600025
2.45799994 -3.80500007 12.26200008
2.34599996 -4.08300018 12.00599957
2.35800004 -4.05200005 12.01200008
2.28500009 -4.23400021 11.85000038
2.27200007 -4.22800016 12.48299980
2.27399993 -4.22300005 12.46899986
2.27600002 -4.22300005 12.28800011
2.27800012 -4.21899986 12.27299976
2.27999997 -4.21600008 12.22200012
2.28299999 -4.20900011 12.19099998
2.28600001 -4.20400000 12.15999985
2.25500011 -4.28100014 12.06200027
2.25699997 -4.27600002 12.04800034
2.26200008 -4.26499987 12.03899956
2.26500010 -4.25799990 12.02700043
2.44799995 -3.81100011 12.25899982
2.33999991 -4.07700014 12.02999973
2.26099992 -4.21999979 12.46100044
2.26200008 -4.21700001 12.44499969
2.26399994 -4.21199989 12.43099976
2.26399994 -4.21500015 12.33800030
2.26399994 -4.21600008 12.31900024
2.26200008 -4.22300005 12.29500008
2.26300001 -4.21999979 12.27999973
2.26600003 -4.21400023 12.26700020
2.26099992 -4.22499990 12.23999977
2.26200008 -4.22499990 12.22200012
2.23799992 -4.28800011 12.06299973
2.24200010 -4.27699995 12.05399990
2.24499989 -4.26999998 12.04199982
2.26099992 -4.23899984 11.85499954
2.36500001 -3.98099995 12.00699997
2.42300010 -3.83800006 12.10099983
2.42700005 -3.82900000 12.09099960
2.43700004 -3.80599999 12.09099960
2.44499993 -3.78500009 12.08899975
2.24799991 -4.21199989 12.43700027
2.24900007 -4.20900011 12.42199993
2.24699998 -4.21500015 12.39900017
2.24600005 -4.21999979 12.35900021
2.24799991 -4.21500015 12.34500027
2.24399996 -4.22700024 12.31700039
2.24200010 -4.23099995 12.29500008
2.24699998 -4.21899986 12.28800011
2.25099993 -4.21000004 12.27600002
2.26600003 -4.17600012 12.19699955
2.23499990 -4.26000023 11.91600037
2.32699990 -4.03200006 12.06200027
2.38199997 -3.89700007 12.15200043
2.38299990 -3.89499998 12.09899998
2.39700007 -3.86299992 12.10700035
2.35400009 -3.96799994 12.00599957
2.30399990 -4.10099983 11.67300034
2.24200010 -4.21000004 12.41600037
2.24099994 -4.21400023 12.39400005
2.23900008 -4.21899986 12.37199974
2.23099995 -4.23999977 12.31900024
2.23099995 -4.23999977 12.30000019
2.23900008 -4.21999979 12.30000019
2.24499989 -4.20599985 12.29300022
2.25799990 -4.17700005 12.20899963
2.31800008 -4.03499985 12.09000015
2.34100008 -3.98000002 12.09799957
2.36700010 -3.91700006 12.13099957
2.34800005 -3.96600008 12.00199986
2.29699993 -4.09899998 11.68700027
2.29900002 -4.09299994 11.67399979
2.22499990 -4.21500015 12.45199966
2.22399998 -4.21700001 12.43200016
2.22399998 -4.21700001 12.41399956
2.22499990 -4.21400023 12.39799976
2.21499991 -4.24100018 12.35799980
2.21700001 -4.23699999 12.32499981
2.23399997 -4.19700003 12.32299995
2.23600006 -4.19199991 12.30799961
2.24399996 -4.17500019 12.21500015
2.31299996 -4.01000023 12.13199997
2.31200004 -4.01300001 12.11200047
2.37700009 -3.85400009 12.13000011
2.28500009 -4.08900023 11.73299980
2.28500009 -4.09100008 11.71500015
2.28600001 -4.08900023 11.69900036
2.21000004 -4.20900011 12.49899960
2.20799994 -4.21500015 12.47599983
2.20900011 -4.21400023 12.45800018
2.20900011 -4.21799994 12.36400032
2.22499990 -4.17799997 12.36100006
2.22900009 -4.16699982 12.35099983
2.22799993 -4.17500019 12.22000027
2.30200005 -3.99600005 12.14799976
2.30399990 -3.99300003 12.13300037
2.27399993 -4.07900000 11.69299984
2.20099998 -4.21299982 12.51000023
2.19700003 -4.22599983 12.39000034
2.22300005 -4.16300011 12.36900043
2.22099996 -4.16900015 12.34700012
2.22099996 -4.17299986 12.21700001
2.29699993 -3.99099994 12.16699982
2.29800010 -3.98799992 12.14999962
2.26399994 -4.08500004 11.70300007
2.26699996 -4.07600021 11.69200039
2.18799996 -4.20900011 12.51799965
2.18600011 -4.21400023 12.49600029
2.18700004 -4.21299982 12.44200039
2.19000006 -4.20599985 12.43099976
2.21700001 -4.14200020 12.37300014
2.28299999 -3.98499990 12.24800014
2.28600001 -3.97799993 12.23600006
2.28699994 -3.97499990 12.22000027
2.28600001 -3.97900009 12.19900036
2.28299999 -3.98699999 12.17500019
2.31800008 -3.90599990 12.00599957
2.25300002 -4.07600021 11.69799995
2.16899991 -4.21799994 12.46300030
2.17899990 -4.19600010 12.46300030
2.18700004 -4.18200016 12.23900032
2.19199991 -4.17100000 12.22999954
2.34299994 -3.80299997 12.18400002
2.31100011 -3.88499999 12.01099968
2.23799992 -4.07399988 11.70600033
2.16100001 -4.21799994 12.47200012
2.20300007 -4.11800003 12.39200020
2.17899990 -4.17999983 12.25100040
2.18199992 -4.17600012 12.23700047
2.33800006 -3.79399991 12.18200016
2.30500007 -3.87899995 12.00899982
2.23300004 -4.06500006 11.70499992
2.19700003 -4.09800005 12.40900040
2.16400003 -4.18200016 12.26900005
2.33699989 -3.75799990 12.19400024
2.29200006 -3.87500000 12.01200008
2.29699993 -3.86400008 12.00300026
2.22000003 -4.06199980 11.70800018
2.18600011 -4.08699989 12.42300034
2.15400004 -4.16900015 12.28299999
2.25600004 -3.92000008 12.23200035
2.32599998 -3.74799991 12.20699978
2.27800012 -3.87199998 12.01900005
2.28200006 -3.86400008 12.00800037
2.28500009 -3.85599995 11.99699974
2.18000007 -4.08199978 12.42199993
2.14599991 -4.17100000 12.27700043
2.25099993 -3.91199994 12.23400021
2.32299995 -3.73600006 12.21199989
2.28200006 -3.84400010 12.00199986
2.20199990 -4.04899979 11.69999981
2.16899991 -4.07200003 12.41499996
2.25900006 -3.85400009 12.31900024
2.24799991 -3.88199997 12.27799988
2.24200010 -3.89700007 12.24800014
2.27099991 -3.83299994 11.99400043
2.19000006 -4.04199982 11.70800018
2.23499990 -3.87700009 12.27799988
2.25900006 -3.82699990 11.99400043
2.23300004 -3.85899997 12.29399967
2.22700000 -3.83500004 12.30200005
2.14100003 -4.00799990 12.48299980
2.14100003 -4.00699997 12.46500015
2.14499998 -3.99799991 12.45400047
2.16599989 -3.94600010 12.47799969
2.21600008 -3.82500005 12.32100010
2.13400006 -4.00199986 12.50399971
2.13400006 -4.00400019 12.48499966
2.13700008 -3.99600005 12.47299957
2.13499999 -4.00299978 12.44900036
2.16100001 -3.93700004 12.48499966
2.21000004 -3.81999993 12.32499981
2.13400006 -3.96600008 12.46700001
2.15599990 -3.90700006 12.49699974
2.16300011 -3.89100003 12.49199963
2.20499992 -3.79200006 12.33399963
2.16300011 -3.85500002 12.49800014
2.11400008 -3.96000004 12.44699955
2.15799999 -3.84899998 12.50000000
2.09999990 -3.95700002 12.45300007
2.15100002 -3.82599998 12.52400017
2.08999991 -3.94600010 12.45400047
2.08400011 -3.93899989 12.45600033
2.06900001 -3.93899989 12.45899963
2.05299997 -3.94199991 12.46199989
1.97200000 -4.46199989 12.51000023
2.00799990 -4.37599993 12.43799973
2.50799990 -4.12200022 11.09599972
2.51999998 -4.05800009 11.21899986
2.50200009 -4.10300016 11.10099983
2.49399996 -4.10400009 11.13000011
2.49699998 -4.09800005 11.11699963
2.49900007 -4.09200001 11.10400009
2.36599994 -4.27500010 11.25500011
2.36500001 -4.23999977 11.30900002
2.35400009 -4.26800013 11.25399971
2.36599994 -4.21700001 11.31999969
2.35999990 -4.19399977 11.33899975
2.32900000 -4.27199984 11.24600029
2.34299994 -4.23799992 11.25500011
2.34899998 -4.18200016 11.35900021
2.31500006 -4.26800013 11.24300003
2.32900000 -4.23400021 11.25199986
2.33400011 -4.22100019 11.24400043
2.31100011 -4.25899982 11.24699974
2.32900000 -4.21500015 11.24600029
2.28800011 -4.28100014 11.23499966
2.30200005 -4.24800014 11.24300003
2.32200003 -4.19999981 11.24499989
2.28900003 -4.24100018 11.25800037
2.28900003 -4.24100018 11.24100018
2.30500007 -4.20200014 11.25300026
2.31100011 -4.19000006 11.24600029
2.28099990 -4.24200010 11.24300003
2.30500007 -4.18400002 11.25199986
2.28999996 -4.18599987 11.25800037
2.25600004 -4.22800016 11.24899960
2.27399993 -4.18300009 11.26599979
2.24900007 -4.22900009 11.24400043
2.26900005 -4.17899990 11.26500034
2.30699992 -4.42100000 12.86800003
2.30999994 -4.41400003 12.85499954
2.31100011 -4.41200018 12.83800030
2.30599999 -4.40799999 12.84000015
2.30999994 -4.39799976 12.83100033
2.29399991 -4.39900017 12.82100010
2.29999995 -4.38700008 12.81299973
2.28299999 -4.39200020 12.80099964
2.27500010 -4.39200020 12.79399967
2.26200008 -4.38600016 12.78199959
2.24799991 -4.38199997 12.77900028
2.25099993 -4.37599993 12.76500034
2.24499989 -4.37099981 12.76599979
2.24000001 -4.34899998 12.78999996
2.23499990 -4.36299992 12.75899982
2.23699999 -4.35799980 12.74499989
2.22799993 -4.34200001 12.76900005
2.22399998 -4.35200024 12.74300003
2.22799993 -4.34399986 12.73099995
2.22199988 -4.34100008 12.73600006
2.22499990 -4.33199978 12.72500038
2.21300006 -4.32700014 12.71800041
2.21700001 -4.31699991 12.70899963
2.22199988 -4.30600023 12.69999981
2.20799994 -4.30200005 12.69200039
2.21099997 -4.29400015 12.68000031
2.20499992 -4.29199982 12.67599964
2.12599993 -4.31300020 12.82299995
2.10100007 -4.35099983 12.89400005
2.10400009 -4.34399986 12.88099957
2.10999990 -4.33099985 12.85499954
2.11100006 -4.32800007 12.83899975
2.11899996 -4.31099987 12.81599998
2.12199998 -4.30399990 12.80500031
2.12500000 -4.29600000 12.79300022
2.12800002 -4.28900003 12.77900028
2.13400006 -4.27500010 12.77400017
2.13499999 -4.27199984 12.75699997
2.14299989 -4.25500011 12.73499966
2.09800005 -4.32700014 12.84099960
1.97800004 -4.63000011 12.54199982
1.98399997 -4.61600018 12.53699970
2.11199999 -4.29300022 12.79599953
2.12400007 -4.26499987 12.74600029
2.12800002 -4.25500011 12.73499966
2.13199997 -4.24700022 12.72399998
2.14199996 -4.22300005 12.68900013
2.06900001 -4.33900023 13.49699974
1.98000002 -4.59000015 12.52700043
1.98500001 -4.57800007 12.51900005
1.99100006 -4.56400013 12.51299953
1.99899995 -4.54400015 12.51299953
2.08599997 -4.30200005 12.80700016
1.97300005 -4.58799982 12.52400017
2.00200009 -4.51599979 12.56799984
1.99800003 -4.52699995 12.53999996
2.00099993 -4.51900005 12.52900028
2.00300002 -4.51599979 12.51299953
2.12899995 -4.20300007 12.61400032
2.11100006 -4.24900007 12.52000046
2.05299997 -4.32299995 13.48999977
2.11500001 -4.19399977 12.80799961
2.11500001 -4.19399977 12.78899956
2.10999990 -4.20800018 12.72200012
2.11599994 -4.19600010 12.62199974
2.09400010 -4.25400019 12.53699970
2.03099990 -4.34100008 13.52499962
2.04399991 -4.31099987 13.47599983
2.10200000 -4.18699980 12.88300037
2.10100007 -4.19099998 12.86100006
2.10100007 -4.19000006 12.84399986
2.10200000 -4.18800020 12.82600021
2.10200000 -4.18900013 12.80599976
2.10299993 -4.18699980 12.78999996
2.10400009 -4.18499994 12.77299976
2.09999990 -4.19999981 12.63099957
2.10500002 -4.19000006 12.62199974
2.07699990 -4.26000023 12.54500008
2.02500010 -4.33400011 13.53299999
2.02699995 -4.32999992 13.51799965
2.03500009 -4.31099987 13.47700024
2.09200001 -4.18900013 12.90200043
2.09200001 -4.19000006 12.88300037
2.09400010 -4.18699980 12.86600018
2.09400010 -4.18599987 12.84899998
2.09500003 -4.18400002 12.83199978
2.09599996 -4.18300009 12.81299973
2.09699988 -4.18100023 12.79699993
2.09699988 -4.17999983 12.77900028
2.09899998 -4.17700005 12.76299953
2.09299994 -4.19500017 12.63799953
2.01099992 -4.32999992 13.52600002
2.01399994 -4.32399988 13.51200008
2.01799989 -4.31500006 13.50000000
2.02300000 -4.30200005 13.47299957
2.07699990 -4.18499994 12.96899986
2.07500005 -4.19000006 12.94499969
2.07900000 -4.18300009 12.89500046
2.07999992 -4.18100023 12.87800026
2.08200002 -4.17799997 12.86299992
2.08299994 -4.17500019 12.84599972
2.08599997 -4.16699982 12.83399963
1.97000003 -4.46700001 12.52400017
2.07800007 -4.19299984 12.64700031
2.03800011 -4.29699993 12.53999996
1.99899995 -4.32399988 13.52299976
2.00600004 -4.30900002 13.49800014
2.00799990 -4.30299997 13.48499966
2.01099992 -4.29600000 13.47099972
2.01500010 -4.28900003 13.45899963
2.06100011 -4.18800020 12.99600029
2.06200004 -4.18900013 12.95800018
2.06399989 -4.18400002 12.94299984
2.06399989 -4.18400002 12.92500019
2.06999993 -4.17199993 12.88000011
2.06500006 -4.19000006 12.65999985
2.05399990 -4.21799994 12.61800003
2.03699994 -4.26300001 12.56200027
2.00300002 -4.29699993 13.47000027
2.00600004 -4.28999996 13.45699978
2.05200005 -4.18800020 13.09000015
2.05399990 -4.18300009 13.03699970
2.05299997 -4.18900013 13.01299953
2.05500007 -4.18499994 12.99800014
2.05800009 -4.17899990 12.94699955
2.05800009 -4.17799997 12.93000031
2.05699992 -4.19000006 12.65999985
2.02600002 -4.26999998 12.57400036
2.02999997 -4.26100016 12.56400013
2.03600001 -4.18900013 13.07499981
2.03699994 -4.18699980 13.05900002
2.03800011 -4.18400002 13.04199982
2.03800011 -4.18400002 13.02299976
2.03999996 -4.18200016 13.00699997
2.04500008 -4.17100000 12.97900009
2.04500008 -4.17100000 12.96000004
2.05800009 -4.13999987 12.85499954
2.03600001 -4.20300007 12.67300034
2.00699997 -4.27899981 12.59000015
2.00900006 -4.27400017 12.57600021
1.96800005 -4.31199980 13.43799973
1.99199998 -4.25400019 13.41300011
2.02500010 -4.18300009 13.07600021
2.02699995 -4.17700005 13.06200027
2.02699995 -4.17799997 13.04199982
2.02699995 -4.17799997 13.02299976
2.02900004 -4.17399979 13.00800037
2.04600000 -4.13700008 12.85400009
1.99199998 -4.28000021 12.62100029
1.98899996 -4.28800011 12.59599972
1.96099997 -4.31099987 13.43599987
1.98099995 -4.26200008 13.40299988
1.98500001 -4.25199986 13.39200020
2.01799989 -4.18100023 13.07600021
2.01999998 -4.17600012 13.06200027
2.02200007 -4.17100000 13.04699993
2.02200007 -4.17199993 13.02700043
2.02399993 -4.16699982 13.01299953
1.97399998 -4.30700016 12.61400032
1.97899997 -4.29300022 12.60799980
1.98000002 -4.22700024 13.38199997
1.99800003 -4.18699980 13.22599983
1.99800003 -4.18800020 13.20600033
1.99800003 -4.18900013 13.18599987
1.99800003 -4.19000006 13.14700031
2.02699995 -4.12699986 12.88199997
1.95099998 -4.32399988 12.65900040
1.95299995 -4.32100010 12.64400005
1.95599997 -4.31199980 12.63300037
1.98300004 -4.18699980 13.27400017
1.98300004 -4.18800020 13.25500011
1.98500001 -4.18400002 13.22000027
1.98199999 -4.19099998 13.19499969
1.98699999 -4.18100023 13.18500042
1.97500002 -4.18699980 13.27099991
1.97700000 -4.18200016 13.25599957
1.97000003 -4.20200014 13.20100021
1.97700000 -4.18300009 13.19900036
2.00000000 -4.12799978 13.15200043
1.98800004 -4.16300011 13.02700043
1.96200001 -4.17600012 13.43700027
1.94700003 -4.22200012 13.22399998
1.94799995 -4.21899986 13.20800018
1.99399996 -4.10500002 13.17500019
1.97500002 -4.15799999 13.03400040
1.94299996 -4.18699980 13.41399956
1.95899999 -4.16900015 12.75000000
1.93499994 -4.18599987 13.42700005
1.93299997 -4.19199991 13.40299988
1.93900001 -4.17899990 13.35700035
1.98099995 -4.07900000 13.17800045
1.95099998 -4.15999985 13.05099964
1.95400000 -4.15299988 13.03800011
1.89300001 -4.32100010 12.65200043
1.90999997 -4.20900011 13.50300026
1.92100000 -4.18499994 13.42800045
1.88000000 -4.29500008 13.25399971
1.97099996 -4.06699991 13.18900013
1.93900001 -4.15100002 13.05900002
1.93599999 -4.16800022 12.81999969
1.88100004 -4.31500006 12.65799999
1.89199996 -4.21500015 13.54399967
1.90499997 -4.18599987 13.45400047
1.90799999 -4.17700005 13.44200039
1.92400002 -4.15000010 13.06599998
1.88499999 -4.21099997 13.54199982
1.83500004 -4.34800005 13.32299995
1.90300000 -4.17000008 13.44299984
1.91600001 -4.14799976 13.08199978
1.91700006 -4.14699984 13.06400013
1.83800006 -4.36399984 12.67300034
1.84399998 -4.34700012 12.67000008
1.85599995 -4.31599998 12.67800045
1.82200003 -4.34600019 13.31200027
1.82500005 -4.33799982 13.30000019
1.90199995 -4.14900017 13.06799984
1.81299996 -4.38999987 12.72999954
1.80799997 -4.40600014 12.68000031
1.81299996 -4.39200020 12.67399979
1.84200001 -4.31799984 12.68200016
1.84800005 -4.30399990 12.65799999
1.88600004 -4.15100002 13.07600021
1.78100002 -4.43599987 12.69999981
1.78299999 -4.42999983 12.68700027
1.83299994 -4.30200005 12.64900017
1.76600003 -4.45499992 12.71599960
1.76699996 -4.45200014 12.69999981
1.77100003 -4.44199991 12.68900013
1.81900001 -4.31799984 12.70499992
1.82900000 -4.29400015 12.67000008
1.74399996 -4.47499990 12.71700001
1.74899995 -4.46099997 12.71100044
1.80900002 -4.30700016 12.71500015
1.81599998 -4.29099989 12.67199993
1.85699999 -4.13000011 13.07900047
1.79700005 -4.29799986 12.72900009
1.80400002 -4.28100014 12.67099953
1.85099995 -4.12500000 13.07900047
1.78699994 -4.30499983 12.73700047
1.79100001 -4.29500008 12.72799969
1.85399997 -4.06400013 13.53499985
1.81400001 -4.18200016 13.16300011
1.83299994 -4.13299990 13.10999966
1.83800006 -4.12300014 13.08199978
1.77600002 -4.29500008 12.74699974
1.77900004 -4.28700018 12.73600006
1.77600002 -4.23400021 13.27999973
1.77800000 -4.23099995 13.26399994
1.82599998 -4.11199999 13.08300018
1.82900000 -4.10400009 13.07199955
1.76300001 -4.28700018 12.76399994
1.76499999 -4.28399992 12.74899960
1.75999999 -4.29799986 12.69999981
1.76499999 -4.28399992 12.69400024
1.76999998 -4.27099991 12.68700027
1.76499999 -4.23999977 13.32999992
1.76600003 -4.23899984 13.31299973
1.81799996 -4.11100006 13.08300018
1.82500005 -4.09399986 13.07900047
1.75399995 -4.28900003 12.78100014
1.75600004 -4.28599977 12.76399994
1.75800002 -4.28000021 12.75100040
1.75300002 -4.29400015 12.70199966
1.75699997 -4.28599977 12.69099998
1.76199996 -4.27299976 12.68400002
1.79499996 -4.13299990 13.12399960
2.58899999 -4.24900007 12.73299980
2.57200003 -4.25299978 12.71899986
2.56500006 -4.24900007 12.72000027
2.56500006 -4.25099993 12.69999981
2.54600000 -4.26100016 12.68200016
2.53200006 -4.25899982 12.67500019
2.52300000 -4.25899982 12.67099953
2.50999999 -4.25600004 12.65699959
2.49499989 -4.25699997 12.64599991
2.48399997 -4.26100016 12.64000034
2.45199990 -4.29899979 12.72299957
2.45300007 -4.29600000 12.70699978
2.46900010 -4.26200008 12.64299965
2.43899989 -4.29600000 12.70100021
2.44199991 -4.28800011 12.68900013
2.44099998 -4.29099989 12.66800022
2.45600009 -4.25500011 12.68000031
2.45499992 -4.25899982 12.65799999
2.45400000 -4.26200008 12.63799953
2.43700004 -4.28000021 12.67500019
2.43799996 -4.27899981 12.65799999
2.44600010 -4.26100016 12.63599968
2.41599989 -4.29300022 12.65100002
2.42499995 -4.27299976 12.64999962
2.42799997 -4.26499987 12.63799953
2.40899992 -4.27799988 12.63500023
2.41599989 -4.26100016 12.63199997
2.40300012 -4.27400017 12.63300037
2.40899992 -4.26200008 12.62500000
2.39000010 -4.26800013 12.62199974
2.39499998 -4.25500011 12.61400032
2.37599993 -4.26599979 12.61299992
2.37899995 -4.26100016 12.59899998
2.32399988 -4.36399984 12.84200001
2.37199998 -4.25799990 12.59899998
2.30800009 -4.37099981 12.73400021
2.35599995 -4.26100016 12.58899975
2.36500001 -4.23799992 12.56999969
2.29500008 -4.36399984 12.73299980
2.29999995 -4.35400009 12.72299957
2.33699989 -4.26999998 12.59200001
2.33999991 -4.26300001 12.57999992
2.34400010 -4.25400019 12.56900024
2.34899998 -4.24200010 12.54199982
2.29099989 -4.35400009 12.71500015
2.32999992 -4.26599979 12.58899975
2.33400011 -4.25799990 12.57600021
2.33599997 -4.25400019 12.56200027
2.28200006 -4.34200001 12.70899963
2.28699994 -4.32800007 12.70300007
2.32299995 -4.24800014 12.55000019
2.32399988 -4.24499989 12.53400040
2.27399993 -4.32200003 12.69999981
2.27600002 -4.31799984 12.68500042
2.31100011 -4.23999977 12.53199959
2.27099991 -4.31099987 12.68799973
2.30299997 -4.23999977 12.52700043
2.25999999 -4.30600023 12.68000031
2.25000000 -4.29199982 12.66499996
2.23900008 -4.29799986 12.73499966
2.24600005 -4.28499985 12.65400028
2.23499990 -4.27600002 12.65200043
2.21499991 -4.28399992 12.66899967
2.21900010 -4.27500010 12.64099979
2.20900011 -4.28200006 12.66600037
2.21099997 -4.27899981 12.65100002
2.21799994 -4.26100016 12.62800026
2.20000005 -4.26800013 12.64500046
2.20300007 -4.26100016 12.63300037
2.20700002 -4.25299978 12.62100029
2.20799994 -4.25099993 12.60499954
2.20300007 -4.21700001 12.84200001
2.21000004 -4.19899988 12.80099964
2.24699998 -4.11000013 12.78400040
2.19700003 -4.23799992 12.60200024
2.20000005 -4.23099995 12.59000015
2.20199990 -4.22700024 12.57499981
2.20499992 -4.22100019 12.56200027
2.19600010 -4.21500015 12.83800030
2.19600010 -4.21600008 12.81999969
2.20600009 -4.19199991 12.80300045
2.23600006 -4.11999989 12.77200031
2.19300008 -4.23000002 12.58699989
2.19700003 -4.21999979 12.57699966
2.19899988 -4.21600008 12.56200027
2.20099998 -4.21099997 12.54699993
2.20400000 -4.20599985 12.53400040
2.18099999 -4.21600008 12.80599976
2.18400002 -4.21000004 12.79300022
2.21000004 -4.14799976 12.73499966
2.18700004 -4.20800018 12.59200001
2.18700004 -4.21000004 12.57199955
2.18600011 -4.21299982 12.55099964
2.18700004 -4.21099997 12.53400040
2.16700006 -4.21500015 12.75899982
2.16799998 -4.21099997 12.74300003
2.17799997 -4.19000006 12.68700027
2.17100000 -4.20900011 12.59799957
2.17100000 -4.21000004 12.57900047
2.17199993 -4.21000004 12.56000042
1.98500001 -4.33799982 13.54800034
1.92200005 -4.35500002 13.88799953
1.90900004 -4.35200024 13.88099957
1.90999997 -4.34999990 13.86299992
1.87500000 -4.41800022 13.81700039
1.88100004 -4.40600014 13.78800011
1.87699997 -4.41499996 13.76000023
1.89100003 -4.34100008 13.83199978
1.98000002 -4.12599993 13.57900047
1.88800001 -4.22300005 13.57499981
1.88999999 -4.21799994 13.56099987
1.88000000 -4.22100019 13.59000015
1.88100004 -4.21999979 13.57299995
1.88399994 -4.21400023 13.55799961
1.86600006 -4.22200012 13.59700012
1.86899996 -4.21700001 13.58199978
1.87100005 -4.21199989 13.56799984
1.87300003 -4.20800018 13.55099964
1.83200002 -4.25099993 14.13199997
1.84099996 -4.24499989 13.70199966
1.84700000 -4.22900009 13.67800045
1.84700000 -4.23000002 13.65799999
1.88199997 -4.13999987 13.64200020
1.83800006 -4.23500013 13.66699982
1.84099996 -4.22700024 13.65400028
1.87500000 -4.13800001 13.67599964
1.87699997 -4.13600016 13.65900040
1.81400001 -4.24300003 14.13399982
1.81599998 -4.23799992 14.11999989
1.82599998 -4.22700024 13.73299980
1.82500005 -4.22900009 13.71100044
1.82700002 -4.22599983 13.69600010
1.83000004 -4.21999979 13.68099976
1.83099997 -4.21600008 13.66499996
1.79900002 -4.24100018 14.10499954
1.80299997 -4.23099995 14.09399986
1.81200004 -4.22100019 13.74699974
1.81099999 -4.22499990 13.72399998
1.81200004 -4.22200012 13.70699978
1.81799996 -4.20800018 13.69999981
1.81799996 -4.21000004 13.65900040
1.79700005 -4.22900009 14.09099960
1.80200005 -4.22800016 13.75500011
1.80599999 -4.21799994 13.74499989
1.80400002 -4.22499990 13.71899986
1.81200004 -4.20499992 13.65900040
1.77999997 -4.23199987 14.13099957
1.78199995 -4.22800016 14.11400032
1.78400004 -4.22399998 14.09799957
1.78499997 -4.22200012 14.07999992
1.78499997 -4.23500013 13.75100040
1.78699994 -4.23000002 13.73600006
1.79799998 -4.20400000 13.66199970
1.80100000 -4.13000011 14.27799988
1.76900005 -4.22399998 14.06999969
1.77300000 -4.21299982 14.03899956
1.78999996 -4.18300009 13.67300034
1.82900000 -4.08599997 13.58500004
1.79299998 -4.13100004 14.27600002
1.76800001 -4.20800018 14.04300022
1.76699996 -4.20900011 14.02200031
1.83500004 -4.04699993 13.65799999
1.82099998 -4.08400011 13.60499954
1.82000005 -4.08799982 13.58199978
1.84399998 -4.02799988 13.55799961
1.77900004 -4.13100004 14.26000023
1.77999997 -4.13000011 14.24100018
1.75300002 -4.21000004 14.00599957
1.76199996 -4.19299984 13.80300045
1.77100003 -4.17500019 13.70199966
1.80100000 -4.10099983 13.59399986
1.76300001 -4.13600016 14.22599983
1.74899995 -4.18699980 13.80000019
1.76300001 -4.15500021 13.71100044
1.78299999 -4.10799980 13.59799957
1.78699994 -4.09700012 13.58899975
1.75600004 -4.13100004 14.26399994
1.75699997 -4.13000011 14.24499989
1.75500000 -4.13700008 14.21800041
1.73699999 -4.19899988 13.80099964
1.74000001 -4.13899994 14.19699955
1.74000001 -4.13999987 14.17700005
1.76699996 -4.09100008 13.62800026
1.72399998 -4.14499998 14.16100025
1.72200000 -4.15100002 14.13500023
1.70899999 -4.18699980 14.06099987
1.70899999 -4.18800020 14.04100037
1.71000004 -4.19500017 13.81599998
1.75399995 -4.08599997 13.64099979
1.75399995 -4.08500004 13.62199974
1.70799994 -4.16699982 14.11900043
1.70099998 -4.18499994 14.08199978
1.70099998 -4.18499994 14.06200027
1.70200002 -4.18499994 14.04199982
1.68099999 -4.19700003 14.13599968
1.68299997 -4.19399977 14.11900043
1.68400002 -4.19099998 14.10099983
1.68599999 -4.18599987 14.08500004
1.68900001 -4.17999983 14.07199955
1.67100000 -4.23099995 14.00399971
1.66600001 -4.19799995 14.18700027
1.66600001 -4.19999981 14.16600037
1.66799998 -4.19399977 14.15100002
1.66900003 -4.19099998 14.13399982
1.66999996 -4.18900013 14.11499977
1.67299998 -4.18400002 14.10000038
1.67600000 -4.17600012 14.08699989
1.67499995 -4.14900017 14.27499962
1.65600002 -4.20300007 14.20400047
1.65699995 -4.19999981 14.18700027
1.65900004 -4.19700003 14.16899967
1.65999997 -4.19299984 14.15299988
1.66299999 -4.18699980 14.13799953
1.66499996 -4.18200016 14.12399960
1.67100000 -4.17700005 13.84899998
1.63999999 -4.20300007 14.25199986
1.64100003 -4.19899988 14.23600006
1.64199996 -4.19899988 14.21599960
1.64300001 -4.19600010 14.19900036
1.64499998 -4.19099998 14.18299961
1.64699996 -4.18599987 14.16699982
1.61500001 -4.21899986 14.50800037
1.62000000 -4.21400023 14.32900047
1.62399995 -4.20300007 14.31900024
1.62600005 -4.19899988 14.30300045
1.62699997 -4.19700003 14.28499985
1.62800002 -4.19299984 14.26799965
1.62899995 -4.19199991 14.25000000
1.63100004 -4.18699980 14.23400021
1.60899997 -4.21500015 14.50500011
1.61300004 -4.20699978 14.49300003
1.62100005 -4.18900013 14.38799953
1.61899996 -4.19500017 14.36100006
1.61500001 -4.20699978 14.32999992
1.61800003 -4.19899988 14.31799984
1.62000000 -4.19399977 14.30200005
1.62100005 -4.19199991 14.28299999
1.62100005 -4.19299984 14.26200008
1.62399995 -4.18599987 14.24800014
1.59800005 -4.20300007 14.47700024
1.60300004 -4.19199991 14.46700001
1.59899998 -4.20400000 14.43700027
1.60099995 -4.19799995 14.42099953
1.60399997 -4.19099998 14.40699959
1.60399997 -4.19199991 14.38599968
1.60399997 -4.19399977 14.36400032
1.60699999 -4.18599987 14.35099983
1.60699999 -4.18599987 14.33100033
1.61399996 -4.17000008 14.28600025
1.58899999 -4.19099998 14.50100040
1.59000003 -4.19000006 14.48099995
1.59000003 -4.19000006 14.46100044
1.59000003 -4.18900013 14.44099998
1.59200001 -4.18699980 14.42300034
1.59200001 -4.18699980 14.40299988
1.59500003 -4.17899990 14.39000034
1.60800004 -4.14900017 14.29699993
1.58099997 -4.19199991 14.52299976
1.58200002 -4.19099998 14.50300026
1.58299994 -4.18800020 14.48499966
1.58399999 -4.18499994 14.46899986
1.58500004 -4.18400002 14.44900036
1.58599997 -4.18100023 14.43099976
1.59099996 -4.17000008 14.40100002
1.60200000 -4.14400005 14.30399990
1.56500006 -4.19199991 14.56700039
1.56200004 -4.19999981 14.53800011
1.56599998 -4.19000006 14.52799988
1.56799996 -4.18599987 14.51000023
1.57000005 -4.17999983 14.49600029
1.57000005 -4.18200016 14.45199966
1.57299995 -4.17500019 14.43900013
1.61399996 -4.06400013 14.42199993
1.59500003 -4.11899996 14.34899998
1.54100001 -4.21600008 14.54899979
1.54999995 -4.19299984 14.55099964
1.55799997 -4.17600012 14.44400024
1.60000002 -4.06400013 14.42800045
1.58899999 -4.09399986 14.37899971
1.54100001 -4.19999981 14.55799961
1.54900002 -4.18400002 14.45100021
1.58299994 -4.09399986 14.37300014
1.57299995 -4.07600021 14.39299965
1.57099998 -4.09299994 13.19099998
1.57500005 -4.08199978 13.18099976
1.55999994 -4.09800005 13.26099968
1.56400001 -4.09100008 13.18999958
1.54799998 -4.08900023 13.27400017
1.54799998 -4.09100008 13.19600010
1.53600001 -4.08400011 13.19900036
1.50600004 -4.10400009 13.23499966
1.49199998 -4.10200024 13.25000000
1.49600005 -4.09100008 13.24100018
1.40100002 -4.11499977 15.05000019
1.40100002 -4.11600018 15.02700043
1.38600004 -4.11199999 15.08600044
1.38800001 -4.10900021 15.06700039
1.38900006 -4.10599995 15.04899979
1.38699996 -4.11199999 15.02200031
1.37699997 -4.11299992 15.14500046
1.37899995 -4.10900021 15.10700035
1.38000000 -4.10699987 15.08699989
1.38100004 -4.10400009 15.06999969
1.36399996 -4.10900021 15.10999966
1.35200000 -4.10099983 15.15499973
1.35599995 -4.09299994 15.05599976
1.34399998 -4.09600019 15.17700005
1.34500003 -4.09499979 15.15699959
1.34899998 -4.09000015 15.05599976
1.32900000 -4.09800005 15.21800041
1.33299994 -4.08799982 15.20600033
1.33599997 -4.08099985 15.19200039
1.33200002 -4.09499979 15.15699959
1.33700001 -4.08500004 15.06000042
1.32299995 -4.07399988 15.27700043
1.32200003 -4.07999992 15.25000000
1.32200003 -4.07999992 15.22900009
1.31799996 -4.09299994 15.17300034
1.31400001 -4.07600021 15.27000046
1.31500006 -4.07499981 15.24899960
1.31700003 -4.07100010 15.23299980
1.30799997 -4.09700012 15.18500042
1.30200005 -4.06899977 15.29599953
1.30299997 -4.06799984 15.27600002
1.29400003 -4.09600019 15.20499992
1.28999996 -4.06199980 15.33199978
1.29100001 -4.05800009 15.31499958
1.28199995 -4.05800009 15.35900021
1.28299999 -4.05700016 15.33699989
1.27199996 -4.04300022 15.42000008
1.26999998 -4.05000019 15.39200020
1.26900005 -4.05299997 15.36699963
1.28199995 -3.96499991 15.57400036
1.25699997 -4.04300022 15.42800045
1.25699997 -4.04300022 15.40799999
1.25899994 -4.03700018 15.39099979
1.23399997 -4.08199978 15.53800011
1.23699999 -4.07100010 15.52700043
1.23800004 -4.06899977 15.50699997
1.24300003 -4.05499983 15.50000000
1.24699998 -4.04699993 15.48600006
1.24899995 -4.04099989 15.47000027
1.25100005 -4.03599977 15.45400047
1.25199997 -4.03299999 15.43500042
1.21800005 -4.08199978 15.58600044
1.23599994 -4.03299999 15.50500011
1.23800004 -4.03000021 15.48600006
1.24000001 -4.02500010 15.46899986
1.22500002 -4.02400017 15.50500011
1.52499998 -4.18900013 14.84200001
1.52600002 -4.18699980 14.82299995
1.52600002 -4.18800020 14.80099964
1.52400005 -4.19299984 14.77600002
1.52600002 -4.19000006 14.73700047
1.52499998 -4.19500017 14.71199989
1.52699995 -4.18800020 14.69699955
1.52900004 -4.18599987 14.67800045
1.53100002 -4.18100023 14.66300011
1.53100002 -4.18200016 14.61999989
1.51400006 -4.18499994 14.73400021
1.48800004 -4.23299980 14.76700020
1.49100006 -4.22399998 14.75500011
1.45000005 -4.28999996 14.88399982
1.45299995 -4.28100014 14.87100029
1.45599997 -4.27299976 14.85900021
1.46099997 -4.26000023 14.82900047
1.46500003 -4.25199986 14.81700039
1.46800005 -4.24300003 14.80500031
1.47099996 -4.23500013 14.79199982
1.50100005 -4.15999985 14.63700008
1.43599999 -4.28800011 14.90299988
1.43700004 -4.28399992 14.88599968
1.44200003 -4.27199984 14.87600040
1.44299996 -4.26900005 14.85900021
1.44599998 -4.26100016 14.84599972
1.44900000 -4.25299978 14.83199978
1.42600000 -4.29300022 14.91499996
1.42799997 -4.28499985 14.90100002
1.43099999 -4.27899981 14.88599968
1.43499994 -4.27099991 14.87300014
1.43900001 -4.26100016 14.84099960
1.47200000 -4.17000008 14.82699966
1.43599999 -4.18300009 14.95499992
1.42700005 -4.18699980 14.95100021
1.43200004 -4.17600012 14.94099998
1.43799996 -4.15899992 14.93599987
1.44099998 -4.15000010 14.92500019
1.44200003 -4.14900017 14.90400028
1.42999995 -4.14099979 14.93700027
1.43099999 -4.14200020 14.91600037
1.41400003 -4.11999989 15.01700020
1.41199994 -4.12500000 14.99100018
1.21399999 -4.09100008 15.64099979
1.21599996 -4.08400011 15.62800026
1.21700001 -4.08300018 15.60599995
1.19700003 -4.09499979 15.69699955
1.20099998 -4.08500004 15.68500042
1.20200002 -4.08199978 15.66499996
1.20299995 -4.08199978 15.64400005
1.19400001 -4.08300018 15.70800018
1.19400001 -4.08300018 15.68599987
1.57400000 -4.22200012 14.67700005
1.59399998 -4.17299986 14.60099983
1.55299997 -4.25299978 14.85700035
1.56700003 -4.22200012 14.67899990
1.58500004 -4.17799997 14.59799957
1.53900003 -4.24900007 14.84300041
1.54299998 -4.23899984 14.83100033
1.55499995 -4.21299982 14.66899967
1.55799997 -4.20599985 14.65699959
1.56500006 -4.19099998 14.60900021
1.56500006 -4.19000006 14.58899975
1.52999997 -4.23600006 14.82100010
1.53499997 -4.22300005 14.81200027
1.55400002 -4.17100000 14.84200001
1.54900002 -4.19299984 14.65400028
1.54999995 -4.18900013 14.63799953
1.55100000 -4.18800020 14.61699963
1.55100000 -4.18900013 14.59599972
1.53799999 -4.19500017 14.85499954
1.53499997 -4.20400000 14.82400036
1.53299999 -4.21000004 14.79699993
1.53400004 -4.20900011 14.77700043
1.54600000 -4.17899990 14.72399998
1.54200006 -4.19199991 14.68999958
1.54200006 -4.19099998 14.67000008
