-5.75600004 -3.26600003 5.61100006
-5.53700018 -3.43799996 5.49599981
-5.53700018 -3.43799996 5.48299980
-5.73999977 -3.26900005 5.19799995
-6.07200003 -3.00500011 5.87699986
-6.06500006 -3.00900006 5.86700010
-6.28200006 -2.82999992 5.64400005
-6.27600002 -2.83500004 5.63399982
-6.29600000 -2.81800008 5.57499981
-5.82800007 -3.19600010 5.76800013
-5.82000017 -3.20199990 5.74599981
-5.81899977 -3.20199990 5.73400021
-5.81799984 -3.20300007 5.72100019
-5.81400013 -3.20600009 5.71000004
-5.80499983 -3.21199989 5.70100021
-5.80399990 -3.21300006 5.68900013
-5.80000019 -3.21600008 5.67799997
-5.80100012 -3.21499991 5.66499996
-5.80000019 -3.21600008 5.65199995
-5.78999996 -3.22300005 5.64300013
-5.78000021 -3.23099995 5.63500023
-5.76800013 -3.24000001 5.62699986
-5.75600004 -3.24900007 5.61899996
-5.75699997 -3.24900007 5.60599995
-5.72100019 -3.27699995 5.59600019
-5.71000004 -3.28500009 5.58699989
-5.69899988 -3.29399991 5.57999992
-5.68800020 -3.30299997 5.57100010
-5.67700005 -3.31100011 5.56300020
-5.67000008 -3.31599998 5.55299997
-5.54400015 -3.41400003 5.43699980
-5.99100018 -3.06200004 6.01599979
-6.08500004 -2.98399997 5.88399982
-6.07000017 -2.99600005 5.87799978
-6.06599998 -2.99900007 5.86700010
-6.28200006 -2.82100010 5.64400005
-5.81199980 -3.19899988 5.78900003
-5.81500006 -3.19600010 5.77400017
-5.81799984 -3.19300008 5.74800014
-5.81199980 -3.19799995 5.73699999
-5.80999994 -3.19899988 5.72499990
-5.80800009 -3.20000005 5.71299982
-5.80299997 -3.20400000 5.70300007
-5.80100012 -3.20499992 5.69099998
-5.77400017 -3.22600007 5.63899994
-5.76399994 -3.23399997 5.63000011
-5.74599981 -3.24799991 5.62400007
-5.72599983 -3.26300001 5.60699987
-5.70599985 -3.27900004 5.59000015
-5.69799995 -3.28500009 5.58099985
-5.68699980 -3.29299998 5.57200003
-5.67799997 -3.29999995 5.56300020
-5.66900015 -3.30699992 5.55399990
-5.65999985 -3.31399989 5.54500008
-5.65100002 -3.32100010 5.53599977
-5.63899994 -3.32999992 5.52799988
-5.53900003 -3.40799999 5.46500015
-5.52799988 -3.41700006 5.45699978
-5.53499985 -3.41000009 5.42799997
-5.56599998 -3.38299990 5.31300020
-5.98899984 -3.04600000 6.01700020
-6.12400007 -2.93700004 5.90399981
-6.09800005 -2.95700002 5.90299988
-6.08599997 -2.96600008 5.89499998
-6.05700016 -2.98900008 5.89599991
-6.28900003 -2.79900002 5.64099979
-5.80399990 -3.18600011 5.72700024
-5.68599987 -3.27699995 5.58500004
-5.67700005 -3.28299999 5.57600021
-5.66699982 -3.29099989 5.56699991
-5.66200018 -3.29600000 5.55700016
-5.65399981 -3.30100012 5.54699993
-5.64900017 -3.30500007 5.53599977
-5.63999987 -3.31100011 5.52699995
-5.61600018 -3.32999992 5.51100016
-5.59999990 -3.34299994 5.49200010
-5.56899977 -3.36700010 5.46600008
-5.56099987 -3.37299991 5.45599985
-5.52199984 -3.40199995 5.42000008
-5.61700010 -3.32599998 5.35699987
-5.62200022 -3.32200003 5.34200001
-5.63800001 -3.30800009 5.32299995
-5.58300018 -3.35100007 5.31799984
-5.56599998 -3.36500001 5.31300020
-5.56199980 -3.36800003 5.30200005
-5.98299980 -3.03399992 6.02199984
-5.98699999 -3.03099990 6.00699997
-6.07700014 -2.95600009 5.90199995
-6.04400015 -2.98300004 5.90399981
-6.29799986 -2.77399993 5.63899994
-6.29099989 -2.77999997 5.63000011
-5.80299997 -3.17000008 5.74399996
-5.79600000 -3.17499995 5.73400021
-5.64599991 -3.28900003 5.55299997
-5.63399982 -3.29900002 5.54500008
-5.63000011 -3.30100012 5.53399992
-5.61499977 -3.31399989 5.51399994
-5.59899998 -3.32599998 5.49599981
-5.59000015 -3.33299994 5.48600006
-5.57999992 -3.33999991 5.47700024
-5.57200003 -3.34599996 5.46799994
-5.57200003 -3.34500003 5.41599989
-5.59200001 -3.32900000 5.39499998
-5.59700012 -3.32399988 5.38000011
-5.51100016 -3.39299989 5.40199995
-5.50000000 -3.40100002 5.39300013
-5.63100004 -3.29500008 5.31599998
-5.63299990 -3.29399991 5.30200005
-5.53000021 -3.37500000 5.29099989
-5.98699999 -3.02300000 6.04099989
-5.98799992 -3.02099991 6.00199986
-6.07999992 -2.94600010 5.89599991
-6.30200005 -2.76300001 5.64499998
-6.29199982 -2.77099991 5.63700008
-5.81899977 -3.14800000 5.74399996
-5.80000019 -3.16300011 5.73999977
-5.79400015 -3.16799998 5.73000002
-5.65100002 -3.27699995 5.55900002
-5.64599991 -3.28099990 5.54799986
-5.60699987 -3.31100011 5.51300001
-5.59100008 -3.32299995 5.49399996
-5.58400011 -3.32800007 5.48400021
-5.57600021 -3.33400011 5.47399998
-5.56699991 -3.34200001 5.46500015
-5.55900002 -3.34699988 5.45499992
-5.56099987 -3.34400010 5.41599989
-5.49800014 -3.39400005 5.40199995
-5.49399996 -3.39700007 5.39099979
-5.49399996 -3.39599991 5.36499977
-5.53200006 -3.36500001 5.29899979
-5.51999998 -3.37400007 5.29099989
-5.51700020 -3.37599993 5.27899981
-5.97599983 -3.01500010 6.05900002
-5.97800016 -3.01300001 6.04500008
-5.98600006 -3.00600004 6.00299978
-5.98699999 -3.00500011 5.98999977
-5.99200010 -3.00099993 5.97499990
-6.03800011 -2.96300006 5.92799997
-6.29500008 -2.75200009 5.64900017
-5.80499983 -3.14400005 5.78900003
-5.78599977 -3.15799999 5.75899982
-5.79099989 -3.15400004 5.74399996
-5.64599991 -3.26399994 5.56199980
-5.57399988 -3.31900001 5.48799992
-5.56400013 -3.32699990 5.47900009
-5.55900002 -3.32999992 5.46799994
-5.55299997 -3.33400011 5.45800018
-5.54899979 -3.33800006 5.44700003
-5.54099989 -3.34299994 5.43699980
-5.53999996 -3.34400010 5.42500019
-5.53100014 -3.35100007 5.41499996
-5.97800016 -2.99600005 6.05499983
-6.00500011 -2.97300005 5.95300007
-6.01100016 -2.96799994 5.93800020
-5.78800011 -3.14000010 5.78100014
-5.78900003 -3.13800001 5.74300003
-5.64699984 -3.24600005 5.57100010
-5.64300013 -3.24799991 5.55999994
-5.54099989 -3.32699990 5.46099997
-5.53800011 -3.32900000 5.44899988
-5.53299999 -3.33299994 5.43800020
-5.52899981 -3.33599997 5.42700005
-5.52400017 -3.33899999 5.41599989
-5.51499987 -3.34599996 5.40700006
-5.50400019 -3.35400009 5.39799976
-5.48299980 -3.36700010 5.26399994
-5.98899984 -2.98000002 6.06400013
-6.01100016 -2.96199989 6.03999996
-6.13100004 -2.86599994 5.97200012
-5.99800014 -2.97000003 5.95699978
-6.01200008 -2.95799994 5.93800020
-5.77699995 -3.14000010 5.78700018
-5.78599977 -3.13199997 5.74399996
-5.69899988 -3.19600010 5.57600021
-5.69099998 -3.20199990 5.56599998
-5.64099979 -3.24200010 5.57499981
-5.64799976 -3.23600006 5.55900002
-5.52699995 -3.32900000 5.44099998
-5.52299976 -3.33100009 5.42999983
-5.51900005 -3.33400011 5.41800022
-5.51499987 -3.33699989 5.40700006
-5.50699997 -3.34299994 5.39699984
-5.48999977 -3.35599995 5.37799978
-5.45300007 -3.38400006 5.34100008
-5.48099995 -3.35999990 5.26599979
-5.47599983 -3.36400008 5.25500011
-6.12099981 -2.85599995 5.97599983
-6.10900021 -2.86500001 5.96899986
-6.10099983 -2.87100005 5.95900011
-6.03999996 -2.91899991 5.96199989
-6.01800013 -2.93700004 5.96000004
-6.01200008 -2.94199991 5.94999981
-5.78399992 -3.11599994 5.74499989
-5.68300009 -3.19099998 5.57000017
-5.66900015 -3.20099998 5.56199980
-5.65500021 -3.21300006 5.55600023
-5.65100002 -3.21600008 5.54400015
-5.50199986 -3.32999992 5.41300011
-5.49100018 -3.33699989 5.38999987
-5.48999977 -3.33800006 5.37799978
-5.46400023 -3.35700011 5.33699989
-5.45599985 -3.36400008 5.32700014
-5.44600010 -3.37100005 5.31799984
-5.44799995 -3.36899996 5.30499983
-5.46099997 -3.35700011 5.24800014
-5.45100021 -3.36500001 5.23899984
-5.44700003 -3.36800003 5.22800016
-6.12799978 -2.83400011 5.98899984
-6.12300014 -2.83800006 5.97900009
-6.03000021 -2.91100001 5.95800018
-6.00500011 -2.93000007 5.95699978
-5.80900002 -3.07900000 5.76300001
-5.78499985 -3.09800005 5.74800014
-5.64499998 -3.20400000 5.55100012
-5.48000002 -3.32999992 5.40000010
-5.48199987 -3.32800007 5.38700008
-5.47100019 -3.33599997 5.36499977
-5.46700001 -3.33899999 5.35400009
-5.46299982 -3.34200001 5.34200001
-5.45499992 -3.34699988 5.33199978
-5.44999981 -3.35100007 5.32100010
-5.44500017 -3.35400009 5.30999994
-5.43800020 -3.35999990 5.30000019
-5.43200016 -3.36400008 5.28999996
-5.42700005 -3.36800003 5.27899981
-5.42799997 -3.36599994 5.22700024
-5.41800022 -3.37299991 5.21799994
-6.12099981 -2.83100009 5.98899984
-5.99900007 -2.92600012 5.95699978
-5.79500008 -3.08200002 5.76700020
-5.78700018 -3.08699989 5.74499989
-5.65000010 -3.19000006 5.54600000
-5.64799976 -3.19099998 5.53399992
-5.46400023 -3.33200002 5.36499977
-5.45800018 -3.33599997 5.35400009
-5.45200014 -3.33999991 5.34399986
-5.44999981 -3.34200001 5.33099985
-5.44399977 -3.34699988 5.32100010
-5.44000006 -3.34899998 5.30999994
-5.43699980 -3.35100007 5.29799986
-5.42999983 -3.35599995 5.28800011
-5.42600012 -3.35899997 5.27699995
-5.41800022 -3.36500001 5.26700020
-5.41300011 -3.36899996 5.25600004
-5.40799999 -3.37299991 5.24499989
-5.40199995 -3.37700009 5.23400021
-5.40999985 -3.36999989 5.21799994
-5.40000010 -3.37800002 5.20900011
-5.98999977 -2.91499996 5.95699978
-5.79600000 -3.06200004 5.74900007
-5.65100002 -3.17000008 5.54199982
-5.64699984 -3.17400002 5.53100014
-5.42999983 -3.33800006 5.30999994
-5.42000008 -3.34500003 5.30000019
-5.41699982 -3.34699988 5.28900003
-5.41499996 -3.34899998 5.27699995
-5.41099977 -3.35200000 5.26599979
-5.40600014 -3.35599995 5.25500011
-5.40100002 -3.35800004 5.24399996
-5.39599991 -3.36299992 5.23299980
-5.39200020 -3.36599994 5.22100019
-5.38899994 -3.36700010 5.21000004
-5.37099981 -3.38100004 5.17799997
-5.36399984 -3.38599992 5.16800022
-5.97900009 -2.90700006 5.96400023
-5.65399981 -3.15100002 5.54300022
-5.64699984 -3.15599990 5.53299999
-5.39599991 -3.34599996 5.26100016
-5.38999987 -3.34999990 5.25000000
-5.38399982 -3.35500002 5.23999977
-5.38100004 -3.35599995 5.22800016
-5.37699986 -3.35999990 5.21700001
-5.37300014 -3.36199999 5.20599985
-5.36000013 -3.37199998 5.17199993
-5.35599995 -3.37400007 5.16099977
-5.98000002 -2.89800000 5.97399998
-5.97300005 -2.90300012 5.96500015
-5.65299988 -3.14299989 5.54199982
-5.65000010 -3.14499998 5.53000021
-5.36899996 -3.35599995 5.20499992
-5.36600018 -3.35800004 5.19299984
-5.35500002 -3.36599994 5.17199993
-5.34600019 -3.37299991 5.16300011
-5.96199989 -2.89400005 5.97100019
-5.95100021 -2.88599992 5.97100019
-5.81400013 -2.98699999 5.75199986
-5.94700003 -2.88100004 5.97399998
-5.78800011 -3.00000000 5.76300001
-5.63800001 -3.11100006 5.54600000
-5.93200016 -2.87700009 5.98199987
-5.78100014 -2.98900008 5.78100014
-5.64099979 -3.09200001 5.57100010
-5.63399982 -3.09699988 5.54899979
-5.32000017 -3.33200002 5.17199993
-5.91400003 -2.87299991 5.99499989
-5.76900005 -2.98099995 5.79199982
-5.63199997 -3.07999992 5.55499983
-5.32200003 -3.31200004 5.20400000
-5.32000017 -3.31299996 5.17799997
-5.31899977 -3.31399989 5.16599989
-5.90899992 -2.86899996 5.99499989
-5.76399994 -2.97600007 5.79099989
-5.62500000 -3.07800007 5.55600023
-5.32399988 -3.30299997 5.21299982
-5.32299995 -3.30299997 5.20100021
-5.33799982 -3.29099989 5.16900015
-5.32399988 -3.30100012 5.16099977
-5.89699984 -2.86299992 6.02799988
-5.89599991 -2.86299992 6.01499987
-5.75699997 -2.96499991 5.79600000
-5.32900000 -3.28200006 5.22599983
-5.32800007 -3.28200006 5.21400023
-5.32600021 -3.28299999 5.20100021
-5.88199997 -2.85599995 6.04099989
-5.32700014 -3.26600003 5.27299976
-5.33300018 -3.26099992 5.25799990
-5.33199978 -3.26099992 5.24599981
-5.31300020 -3.27399993 5.17500019
-5.30999994 -3.27600002 5.16400003
-5.88999987 -2.84200001 6.05399990
-5.33199978 -3.25300002 5.28800011
-5.33199978 -3.25300002 5.27500010
-5.33199978 -3.25300002 5.26200008
-5.33300018 -3.25200009 5.24900007
-5.32900000 -3.25399995 5.23799992
-5.34000015 -3.24600005 5.22100019
-5.32200003 -3.25799990 5.18900013
-5.31300020 -3.26500010 5.17899990
-5.30900002 -3.26900005 5.16800022
-5.33199978 -3.23600006 5.31599998
-5.33400011 -3.23499990 5.30200005
-5.33400011 -3.23399997 5.28900003
-5.33300018 -3.23399997 5.27699995
-5.33199978 -3.23499990 5.26399994
-5.33400011 -3.23300004 5.25099993
-5.32900000 -3.23699999 5.23999977
-5.32600021 -3.23900008 5.22800016
-5.32000017 -3.24300003 5.21700001
-5.31500006 -3.24600005 5.20599985
-5.30999994 -3.25000000 5.19500017
-5.30399990 -3.25399995 5.18499994
-5.29699993 -3.25999999 5.17500019
-5.28700018 -3.26699996 5.16499996
-5.33400011 -3.21700001 5.33300018
-5.33500004 -3.21600008 5.32000017
-5.33300018 -3.21700001 5.30800009
-5.33500004 -3.21499991 5.29400015
-5.33300018 -3.21600008 5.28200006
-5.32999992 -3.21799994 5.26999998
-5.32600021 -3.22099996 5.25899982
-5.32399988 -3.22199988 5.24700022
-5.32200003 -3.22300005 5.23500013
-5.31500006 -3.22900009 5.22499990
-5.30700016 -3.23399997 5.21500015
-5.30100012 -3.23900008 5.20400000
-5.29400015 -3.24399996 5.19399977
-5.28399992 -3.25200009 5.18499994
-5.26800013 -3.26399994 5.17799997
-5.26100016 -3.26900005 5.16800022
-5.33400011 -3.20799994 5.34299994
-5.33400011 -3.20700002 5.32999992
-5.33500004 -3.20600009 5.31699991
-5.33599997 -3.20499992 5.30399990
-5.33199978 -3.20799994 5.29300022
-5.33099985 -3.20900011 5.28000021
-5.32800007 -3.21000004 5.26800013
-5.32399988 -3.21300006 5.25600004
-5.32000017 -3.21600008 5.24599981
-5.31300020 -3.22099996 5.23500013
-5.30600023 -3.22600007 5.22499990
-5.29899979 -3.23099995 5.21500015
-5.28800011 -3.23900008 5.20599985
-5.27699995 -3.24799991 5.19700003
-5.26499987 -3.25699997 5.18900013
-5.33400011 -3.19099998 5.37099981
-5.33400011 -3.19000006 5.35699987
-5.33599997 -3.18899989 5.34399986
-5.33799982 -3.18700004 5.32999992
-5.33900023 -3.18600011 5.31699991
-5.33500004 -3.18799996 5.30499983
-5.33099985 -3.19099998 5.29500008
-5.32600021 -3.19400001 5.28299999
-5.32100010 -3.19799995 5.27199984
-5.31599998 -3.20199990 5.26100016
-5.30700016 -3.20799994 5.25199986
-5.29600000 -3.21600008 5.24300003
-5.28100014 -3.22799993 5.23600006
-5.25699997 -3.24699998 5.23199987
-5.26200008 -3.24200010 5.21799994
-5.33900023 -3.17100000 5.38800001
-5.33699989 -3.17199993 5.37599993
-5.33699989 -3.17199993 5.36299992
-5.34000015 -3.17000008 5.34899998
-5.33900023 -3.17000008 5.33599997
-5.33699989 -3.17100000 5.32399988
-5.33300018 -3.17400002 5.31300020
-5.32800007 -3.17700005 5.30200005
-5.32200003 -3.18199992 5.29199982
-5.31400013 -3.18700004 5.28200006
-5.30600023 -3.19300008 5.27099991
-5.29500008 -3.20099998 5.26300001
-5.28499985 -3.20900011 5.25400019
-5.23500013 -3.24799991 5.26000023
-5.23899984 -3.24399996 5.24599981
-5.33799982 -3.16300011 5.40100002
-5.34100008 -3.16000009 5.38700008
-5.34000015 -3.16000009 5.37400007
-5.34000015 -3.16000009 5.36100006
-5.34000015 -3.16000009 5.34800005
-5.33900023 -3.16000009 5.33599997
-5.33400011 -3.16300011 5.32499981
-5.32999992 -3.16599989 5.31300020
-5.32399988 -3.17100000 5.30299997
-5.31500006 -3.17700005 5.29400015
-5.30600023 -3.18400002 5.28399992
-5.29300022 -3.19400001 5.27600002
-5.28399992 -3.20000005 5.26700020
-5.22900009 -3.24200010 5.27500010
-5.22599983 -3.24499989 5.26300001
-5.33699989 -3.14599991 5.42000008
-5.34000015 -3.14400005 5.40600014
-5.33900023 -3.14400005 5.39300013
-5.34100008 -3.14299989 5.37900019
-5.33699989 -3.14499998 5.36800003
-5.33599997 -3.14599991 5.35599995
-5.33199978 -3.14800000 5.34399986
-5.32999992 -3.14899993 5.33199978
-5.32600021 -3.15199995 5.32100010
-5.31699991 -3.15899992 5.31099987
-5.30600023 -3.16700006 5.30299997
-5.28999996 -3.17899990 5.29600000
-5.33900023 -3.12899995 5.44000006
-5.34000015 -3.12800002 5.42700005
-5.34100008 -3.12700009 5.41400003
-5.33900023 -3.12800002 5.40199995
-5.33900023 -3.12700009 5.38899994
-5.33699989 -3.12899995 5.37699986
-5.33099985 -3.13299990 5.36700010
-5.32800007 -3.13499999 5.35500002
-5.32399988 -3.13800001 5.34399986
-5.31899977 -3.14100003 5.33300018
-5.30900002 -3.14800000 5.32299995
-5.29600000 -3.15899992 5.31599998
-5.34200001 -3.11700010 5.45200014
-5.34299994 -3.11599994 5.43800020
-5.34299994 -3.11599994 5.42600012
-5.34000015 -3.11800003 5.41400003
-5.33799982 -3.11899996 5.40100002
-5.33500004 -3.12100005 5.38999987
-5.32900000 -3.12500000 5.37900019
-5.32499981 -3.12800002 5.36800003
-5.32200003 -3.13000011 5.35599995
-5.31699991 -3.13299990 5.34600019
-5.31199980 -3.13700008 5.33500004
-5.29600000 -3.14899993 5.32800007
-5.34399986 -3.09899998 5.48799992
-5.34700012 -3.09699988 5.47399998
-5.34800005 -3.09599996 5.46099997
-5.34800005 -3.09599996 5.44899988
-5.34499979 -3.09699988 5.43699980
-5.34000015 -3.09999990 5.42500019
-5.33799982 -3.10200000 5.41300011
-5.33300018 -3.10500002 5.40199995
-5.32700014 -3.10999990 5.39200020
-5.32100010 -3.11400008 5.38199997
-5.31599998 -3.11800003 5.37099981
-5.30999994 -3.12199998 5.36000013
-5.30499983 -3.12599993 5.34899998
-5.29500008 -3.13299990 5.34000015
-5.59800005 -2.90599990 6.18800020
-5.34800005 -3.07800007 5.47900009
-5.34600019 -3.07900000 5.46600008
-5.34499979 -3.07999992 5.45400000
-5.34399986 -3.07999992 5.44099998
-5.34000015 -3.08299994 5.42999983
-5.33300018 -3.08800006 5.42000008
-5.32800007 -3.09200001 5.40899992
-5.32100010 -3.09699988 5.39900017
-5.31400013 -3.10100007 5.38899994
-5.30600023 -3.10700011 5.37900019
-5.30000019 -3.11199999 5.36899996
-5.29500008 -3.11500001 5.35699987
-5.28499985 -3.12299991 5.34899998
-5.35200024 -3.06500006 5.49800014
-5.35099983 -3.06599998 5.48600006
-5.34600019 -3.06900001 5.47399998
-5.34499979 -3.06999993 5.46199989
-5.34200001 -3.07100010 5.45100021
-5.33900023 -3.07399988 5.43900013
-5.34299994 -3.06999993 5.42399979
-5.32800007 -3.08100009 5.41699982
-5.31899977 -3.08699989 5.40799999
-5.31300020 -3.09200001 5.39699984
-5.30499983 -3.09800005 5.38800001
-5.29500008 -3.10599995 5.37900019
-5.29300022 -3.10700011 5.36700010
-5.28800011 -3.10999990 5.35599995
-5.35500002 -3.04699993 5.52400017
-5.35599995 -3.04600000 5.51100016
-5.35400009 -3.04699993 5.49900007
-5.34999990 -3.04999995 5.48799992
-5.34499979 -3.05299997 5.47700024
-5.34000015 -3.05599999 5.46500015
-5.33400011 -3.06100011 5.45499992
-5.33099985 -3.06299996 5.44299984
-5.32499981 -3.06699991 5.43300009
-5.31899977 -3.07100010 5.42299986
-5.30999994 -3.07800007 5.41300011
-5.28399992 -3.09599996 5.37099981
-5.57000017 -2.88299990 6.17799997
-5.36000013 -3.02600002 5.54199982
-5.35900021 -3.02600002 5.53000021
-5.35699987 -3.02699995 5.51800013
-5.35400009 -3.02900004 5.50600004
-5.34800005 -3.03399992 5.49599981
-5.34499979 -3.03600001 5.48400021
-5.33900023 -3.03999996 5.47399998
-5.33099985 -3.04600000 5.46400023
-5.32499981 -3.04999995 5.45300007
-5.31799984 -3.05500007 5.44299984
-5.31099987 -3.05999994 5.43300009
-5.27699995 -3.08400011 5.36899996
-5.36100006 -3.01699996 5.57000017
-5.36299992 -3.01500010 5.55600023
-5.36100006 -3.01600003 5.54400015
-5.35799980 -3.01799989 5.53299999
-5.35599995 -3.01900005 5.52099991
-5.35300016 -3.02200007 5.50899982
-5.34700012 -3.02600002 5.49900007
-5.34200001 -3.02900004 5.48699999
-5.33500004 -3.03399992 5.47700024
-5.32999992 -3.03800011 5.46700001
-5.32200003 -3.04399991 5.45699978
-5.31500006 -3.04900002 5.44700003
-5.27600002 -3.07599998 5.37200022
-5.36800003 -2.99499989 5.58400011
-5.36999989 -2.99399996 5.57000017
-5.36999989 -2.99300003 5.55700016
-5.36499977 -2.99699998 5.54699993
-5.35900021 -3.00099993 5.53599977
-5.35699987 -3.00300002 5.52400017
-5.34999990 -3.00699997 5.51399994
-5.34299994 -3.01200008 5.50400019
-5.33799982 -3.01600003 5.49300003
-5.32900000 -3.02200007 5.48400021
-5.32200003 -3.02699995 5.47399998
-5.31199980 -3.03500009 5.46500015
-5.27699995 -3.05900002 5.38800001
-5.37799978 -2.97099996 5.62400007
-5.37799978 -2.97099996 5.61100006
-5.37500000 -2.97300005 5.59899998
-5.37400007 -2.97300005 5.58699989
-5.36999989 -2.97600007 5.57600021
-5.35900021 -2.98300004 5.54199982
-5.35300016 -2.98799992 5.53100014
-5.34700012 -2.99200010 5.51999998
-5.33799982 -2.99799991 5.51100016
-5.33199978 -3.00300002 5.50099993
-5.32100010 -3.00999999 5.49200010
-5.31099987 -3.01799989 5.48299980
-5.53200006 -2.85999990 6.15299988
-5.38299990 -2.96000004 5.64699984
-5.38000011 -2.96099997 5.63500023
-5.38100004 -2.96099997 5.62200022
-5.37799978 -2.96199989 5.61000013
-5.37599993 -2.96399999 5.59800005
-5.37200022 -2.96600008 5.58699989
-5.37099981 -2.96700001 5.57499981
-5.36899996 -2.96799994 5.56300020
-5.34899998 -2.98200011 5.53200006
-5.34299994 -2.98699999 5.52199984
-5.33400011 -2.99300003 5.51300001
-5.32399988 -3.00000000 5.50299978
-5.30700016 -3.01300001 5.49700022
-5.51100016 -2.85800004 6.15199995
-5.39699984 -2.93300009 5.69500017
-5.39799976 -2.93099999 5.68200016
-5.39300013 -2.93499994 5.67199993
-5.39200020 -2.93600011 5.65899992
-5.38999987 -2.93700004 5.64699984
-5.38899994 -2.93700004 5.63399982
-5.38399982 -2.94099998 5.62300014
-5.38199997 -2.94199991 5.61199999
-5.37500000 -2.94700003 5.60099983
-5.36999989 -2.95000005 5.59100008
-5.36700010 -2.95199990 5.57900000
-5.36100006 -2.95700002 5.56899977
-5.35599995 -2.96000004 5.55800009
-5.34800005 -2.96600008 5.54799986
-5.33400011 -2.97600007 5.52799988
-5.31799984 -2.98699999 5.52099991
-5.50500011 -2.84599996 6.14499998
-5.42199993 -2.90799999 6.14400005
-5.42100000 -2.89800000 5.71500015
-5.41699982 -2.90100002 5.70300007
-5.41099977 -2.90499997 5.69299984
-5.40500021 -2.90899992 5.68200016
-5.40000010 -2.91300011 5.67199993
-5.39599991 -2.91499996 5.65999985
-5.39099979 -2.91899991 5.65000010
-5.38600016 -2.92199993 5.63899994
-5.38199997 -2.92499995 5.62699986
-5.37599993 -2.92899990 5.61700010
-5.37200022 -2.93199992 5.60599995
-5.36600018 -2.93700004 5.59499979
-5.35900021 -2.94099998 5.58500004
-5.35300016 -2.94600010 5.57499981
-5.34800005 -2.94799995 5.56400013
-5.33900023 -2.95499992 5.55499983
-5.33099985 -2.96099997 5.54500008
-5.53399992 -2.80500007 5.41200018
-5.49800014 -2.84200001 6.14599991
-5.42199993 -2.89899993 6.13999987
-5.43800020 -2.87700009 5.73000002
-5.43100023 -2.88199997 5.71999979
-5.42299986 -2.88700008 5.71099997
-5.41699982 -2.89199996 5.69999981
-5.40899992 -2.89800000 5.69099998
-5.40199995 -2.90199995 5.68100023
-5.39799976 -2.90499997 5.67000008
-5.39400005 -2.90799999 5.65799999
-5.39099979 -2.91000009 5.64699984
-5.38600016 -2.91400003 5.63600016
-5.37900019 -2.91799998 5.62599993
-5.37200022 -2.92400002 5.61600018
-5.36499977 -2.92799997 5.60599995
-5.35799980 -2.93400002 5.59600019
-5.35300016 -2.93700004 5.58500004
-5.34299994 -2.94400001 5.57600021
-5.33699989 -2.94799995 5.56599998
-5.52699995 -2.80200005 5.41200018
-5.48799992 -2.83200002 6.13600016
-5.42600012 -2.87899995 6.15100002
-5.51200008 -2.80800009 5.85400009
-5.47499990 -2.83400011 5.79199982
-5.46899986 -2.83800006 5.78100014
-5.46400023 -2.84100008 5.77099991
-5.45599985 -2.84699988 5.76100016
-5.44999981 -2.85100007 5.75099993
-5.44299984 -2.85700011 5.74100018
-5.43499994 -2.86199999 5.73099995
-5.42600012 -2.86899996 5.72200012
-5.41800022 -2.87500000 5.71299982
-5.40999985 -2.88000011 5.70300007
-5.40199995 -2.88599992 5.69399977
-5.39799976 -2.88899994 5.68300009
-5.39099979 -2.89400005 5.67199993
-5.38500023 -2.89800000 5.66200018
-5.38000011 -2.90199995 5.65199995
-5.38299990 -2.89899993 5.63700008
-5.36100006 -2.91499996 5.61999989
-5.35400009 -2.92000008 5.61000013
-5.34600019 -2.92600012 5.60099983
-5.33699989 -2.93199992 5.59200001
-5.51800013 -2.79200006 5.41599989
-5.51100016 -2.79699993 5.40600014
-5.47499990 -2.82500005 6.13800001
-5.42399979 -2.86299992 6.14799976
-5.50400019 -2.79500008 5.84000015
-5.50099993 -2.79699993 5.82800007
-5.49399996 -2.80299997 5.81899977
-5.48799992 -2.80699992 5.80800009
-5.47800016 -2.81399989 5.79899979
-5.47100019 -2.81900001 5.78999996
-5.46500015 -2.82299995 5.77899981
-5.45800018 -2.82800007 5.76900005
-5.44999981 -2.83400011 5.76000023
-5.42500019 -2.85200000 5.74499989
-5.41499996 -2.85899997 5.73600006
-5.41099977 -2.86199999 5.72499990
-5.40399981 -2.86700010 5.71500015
-5.39699984 -2.87199998 5.70499992
-5.39099979 -2.87599993 5.69500017
-5.38500023 -2.88100004 5.68400002
-5.37699986 -2.88599992 5.67399979
-5.37200022 -2.88899994 5.66400003
-5.36700010 -2.89299989 5.65299988
-5.35799980 -2.89899993 5.64300013
-5.34499979 -2.90899992 5.62300014
-5.33799982 -2.91400003 5.61299992
-5.34800005 -2.90400004 5.53200006
-5.49300003 -2.79299998 5.40999985
-5.47100019 -2.81900001 6.13800001
-5.42399979 -2.85400009 6.14599991
-5.64799976 -2.68099999 5.90299988
-5.52600002 -2.77099991 5.85400009
-5.51499987 -2.77900004 5.84600019
-5.51000023 -2.78299999 5.83500004
-5.50199986 -2.78800011 5.82499981
-5.49300003 -2.79500008 5.81699991
-5.48299980 -2.80200005 5.80800009
-5.47599983 -2.80699992 5.79799986
-5.46799994 -2.81299996 5.78900003
-5.46000004 -2.81800008 5.77899981
-5.44999981 -2.82599998 5.77099991
-5.41900015 -2.84899998 5.77099991
-5.40899992 -2.85599995 5.74900007
-5.40500021 -2.85800004 5.73799992
-5.40000010 -2.86199999 5.72800016
-5.39300013 -2.86700010 5.71700001
-5.38800001 -2.86999989 5.70599985
-5.38100004 -2.87500000 5.69700003
-5.37599993 -2.87800002 5.68599987
-5.36800003 -2.88499999 5.67600012
-5.36100006 -2.88899994 5.66599989
-5.35500002 -2.89299989 5.65600014
-5.34499979 -2.90100002 5.64699984
-5.33799982 -2.90599990 5.63700008
-5.34499979 -2.89800000 5.53100014
-5.33699989 -2.90400004 5.52099991
-5.47800016 -2.79500008 5.41400003
-5.45800018 -2.81100011 6.14300013
-5.45400000 -2.81299996 6.13199997
-5.62799978 -2.67799997 5.89900017
-5.56899977 -2.72199988 5.88600016
-5.55399990 -2.73300004 5.88000011
-5.54699993 -2.73799992 5.87099981
-5.53700018 -2.74499989 5.86100006
-5.52699995 -2.75200009 5.85300016
-5.51599979 -2.75999999 5.84499979
-5.50600004 -2.76699996 5.83699989
-5.49300003 -2.77699995 5.82900000
-5.48500013 -2.78200006 5.82000017
-5.41900015 -2.83200002 5.83500004
-5.40899992 -2.83999991 5.82700014
-5.40700006 -2.84100008 5.81500006
-5.44700003 -2.80999994 5.78499985
-5.40799999 -2.83899999 5.78800011
-5.40299988 -2.84299994 5.77699995
-5.39799976 -2.84599996 5.76700020
-5.38700008 -2.85400009 5.74499989
-5.38000011 -2.85800004 5.73600006
-5.37400007 -2.86299992 5.72499990
-5.36899996 -2.86700010 5.71400023
-5.36199999 -2.87199998 5.70499992
-5.35400009 -2.87700009 5.69500017
-5.46099997 -2.78999996 5.40799999
-5.44999981 -2.79900002 6.13800001
-5.44399977 -2.80399990 6.12799978
-5.59499979 -2.68499994 5.90399981
-5.61100006 -2.67400002 5.88500023
-5.55000019 -2.71799994 5.87300014
-5.53700018 -2.72799993 5.86600018
-5.52400017 -2.73699999 5.85900021
-5.51000023 -2.74699998 5.85200024
-5.50299978 -2.75200009 5.84200001
-5.40700006 -2.82399988 5.85799980
-5.40799999 -2.82299995 5.84399986
-5.40999985 -2.82200003 5.83099985
-5.40799999 -2.82299995 5.81799984
-5.42299986 -2.81100011 5.79899979
-5.39499998 -2.83100009 5.78499985
-5.38899994 -2.83500004 5.77500010
-5.38399982 -2.83899999 5.76399994
-5.36899996 -2.84899998 5.74499989
-5.36199999 -2.85500002 5.73500013
-5.35400009 -2.85999990 5.72499990
-5.44299984 -2.79699993 6.13600016
-5.43900013 -2.79999995 6.12500000
-5.61000013 -2.66700006 5.91900015
-5.59999990 -2.67499995 5.91099977
-5.59499979 -2.67799997 5.90000010
-5.59399986 -2.67799997 5.88800001
-5.54300022 -2.71600008 5.87200022
-5.52799988 -2.72700000 5.86499977
-5.51300001 -2.73799992 5.85900021
-5.40700006 -2.81699991 5.86600018
-5.41200018 -2.81299996 5.85099983
-5.40899992 -2.81500006 5.84000015
-5.40899992 -2.81399989 5.82600021
-5.40500021 -2.81699991 5.81500006
-5.46199989 -2.77300000 5.77799988
-5.39400005 -2.82500005 5.79400015
-5.38800001 -2.82900000 5.78399992
-5.38299990 -2.83200002 5.77299976
-5.36100006 -2.84800005 5.74399996
-5.47399998 -2.75799990 5.53000021
-5.43200016 -2.78800011 6.12799978
-5.61700010 -2.64599991 5.94099998
-5.63199997 -2.63400006 5.92100000
-5.61899996 -2.64400005 5.91499996
-5.60300016 -2.65599990 5.90899992
-5.61899996 -2.64299989 5.88899994
-5.57200003 -2.67899990 5.89699984
-5.56199980 -2.68600011 5.88800001
-5.41099977 -2.79800010 5.90199995
-5.41400003 -2.79500008 5.87599993
-5.41599989 -2.79299998 5.86199999
-5.41200018 -2.79600000 5.85099983
-5.40799999 -2.79900002 5.83900023
-5.40199995 -2.80299997 5.82900000
-5.46400023 -2.75500011 5.78900003
-5.40700006 -2.79800010 5.80100012
-5.38399982 -2.81599998 5.79799986
-5.37500000 -2.82200003 5.78900003
-5.42799997 -2.77300000 6.12099981
-5.67600012 -2.58500004 5.93200016
-5.66200018 -2.59500003 5.92500019
-5.64900017 -2.60500002 5.91800022
-5.62599993 -2.62199998 5.91599989
-5.60300016 -2.63899994 5.91300011
-5.62200022 -2.62400007 5.89200020
-5.41300011 -2.77999997 5.93200016
-5.42000008 -2.77399993 5.88999987
-5.41400003 -2.77800012 5.88000011
-5.40999985 -2.77999997 5.86800003
-5.40700006 -2.78299999 5.85699987
-5.40100002 -2.78600001 5.84700012
-5.38500023 -2.79800010 5.81500006
-5.37300014 -2.80599999 5.80700016
-5.44500017 -2.74600005 5.51999998
-5.43800020 -2.75099993 5.51100016
-5.43800020 -2.75000000 5.49800014
-5.43300009 -2.75300002 5.47399998
-5.42299986 -2.75999999 5.45300007
-5.41200018 -2.76799989 5.44399977
-5.42700005 -2.76600003 6.12200022
-5.42299986 -2.76900005 6.11100006
-5.70900011 -2.55299997 5.94399977
-5.70300007 -2.55800009 5.93300009
-5.68800020 -2.56800008 5.92799997
-5.66900015 -2.58200002 5.92299986
-5.65100002 -2.59599996 5.91800022
-5.62300014 -2.61599994 5.91800022
-5.62599993 -2.61299992 5.87799978
-5.41900015 -2.76699996 5.93100023
-5.42100000 -2.76600003 5.91699982
-5.42399979 -2.76200008 5.87699986
-5.40700006 -2.77399993 5.87099981
-5.40100002 -2.77900004 5.86000013
-5.42700005 -2.75900006 5.82399988
-5.37900019 -2.79399991 5.81799984
-5.43400002 -2.74799991 5.57700014
-5.43800020 -2.74399996 5.56199980
-5.43699980 -2.74399996 5.53700018
-5.43599987 -2.74399996 5.52500010
-5.43499994 -2.74499989 5.51300001
-5.43100023 -2.74699998 5.50099993
-5.42799997 -2.74900007 5.47700024
-5.41599989 -2.75699997 5.45599985
-5.40899992 -2.76300001 5.44700003
-5.40700006 -2.76300001 5.43499994
-5.41800022 -2.75600004 6.11600018
-5.69999981 -2.54299998 5.92500019
-5.66900015 -2.56500006 5.92600012
-5.65100002 -2.57900000 5.92100000
-5.63000011 -2.59299994 5.88000011
-5.42799997 -2.74399996 5.95599985
-5.42500019 -2.74600005 5.94399977
-5.42299986 -2.74699998 5.93200016
-5.41900015 -2.75000000 5.92100000
-5.41400003 -2.75300002 5.90999985
-5.41099977 -2.75600004 5.89900017
-5.42899990 -2.73300004 5.54400015
-5.42500019 -2.72900009 5.95100021
-5.43400002 -2.72099996 5.92100000
-5.43300009 -2.69799995 6.00899982
-5.42999983 -2.70000005 5.98400021
-5.41699982 -2.70900011 5.96299982
-5.41200018 -2.71300006 5.95300007
-5.58099985 -2.58299994 5.75099993
-5.56799984 -2.59200001 5.74399996
-5.55499983 -2.60200000 5.73699999
-5.52899981 -2.62100005 5.73500013
-5.43300009 -2.68300009 6.05000019
-5.43400002 -2.68099999 6.03700018
-5.43100023 -2.68300009 6.02500010
-5.42700005 -2.68600011 6.01399994
-5.42399979 -2.68799996 6.00299978
-5.42100000 -2.68899989 5.96500015
-5.57200003 -2.57299995 5.75799990
-5.57200003 -2.57200003 5.74499989
-5.43699980 -2.67000008 6.05999994
-5.43499994 -2.67100000 6.04799986
-5.43400002 -2.67199993 6.03499985
-5.42899990 -2.67499995 6.02400017
-5.42399979 -2.67899990 6.01399994
-5.56599998 -2.56800008 5.75899982
-5.57200003 -2.56299996 5.74399996
-5.43200016 -2.65700006 6.05200005
-5.61600018 -2.51500010 5.75299978
-5.58300018 -2.53800011 5.74100018
-5.57700014 -2.54299998 5.73199987
-5.44500017 -2.63299990 6.11999989
-5.60599995 -2.50699997 5.75299978
-5.59700012 -2.51300001 5.74499989
-5.57600021 -2.52800012 5.74100018
-5.50099993 -2.57599998 5.46799994
-5.44899988 -2.61999989 6.13199997
-5.60200024 -2.50000000 5.75600004
-5.59600019 -2.50399995 5.74599981
-5.56400013 -2.52699995 5.74700022
-5.47599983 -2.56800008 5.45699978
-5.18100023 -3.21900010 5.32000017
-5.16300011 -3.21499991 5.34399986
-5.06599998 -3.22099996 5.49800014
-5.27799988 -3.04099989 5.39400005
-5.27199984 -3.01900005 5.41099977
-5.27500010 -3.00000000 5.41300011
-5.27400017 -2.99200010 5.42399979
-5.26700020 -2.99699998 5.41400003
-5.28800011 -2.96499991 5.43100023
-5.25699997 -2.98699999 5.41800022
-5.32900000 -2.90899992 5.51200008
-5.29400015 -2.93300009 5.44799995
-5.32000017 -2.89800000 5.50299978
-5.31799984 -2.89800000 5.48999977
-5.30800009 -2.90499997 5.44399977
-5.34800005 -2.85700011 5.73600006
-5.36600018 -2.81100011 5.79699993
-5.35900021 -2.81599998 5.78700018
-5.22800016 -2.90400004 5.42700005
-5.36600018 -2.80299997 5.81099987
-5.35900021 -2.80800009 5.80000019
-5.22499990 -2.89800000 5.42999983
-5.35900021 -2.79099989 5.81699991
-5.36600018 -2.77699995 5.44199991
-5.21400023 -2.88899994 5.44999981
-5.21299982 -2.88899994 5.43800020
-5.21899986 -2.88499999 5.42299986
-5.36100006 -2.76300001 5.45100021
-5.20300007 -2.88000011 5.46199989
-5.19000006 -2.88000011 5.47900009
-5.19000006 -2.88000011 5.46600008
-5.40600014 -2.71600008 5.94199991
-5.39900017 -2.72099996 5.93200016
-5.39599991 -2.72399998 5.92100000
-5.38800001 -2.72900009 5.91099977
-5.38199997 -2.73300004 5.90100002
-5.37300014 -2.74000001 5.89200020
-5.36499977 -2.74499989 5.88199997
-5.20200014 -2.85899997 5.65299988
-5.40600014 -2.70000005 5.95900011
-5.39900017 -2.70499992 5.94799995
-5.39300013 -2.70900011 5.93900013
-5.38700008 -2.71300006 5.92799997
-5.37900019 -2.71799994 5.91800022
-5.36800003 -2.72700000 5.90999985
-5.18699980 -2.85299993 5.65000010
-5.18400002 -2.85500002 5.63800001
-5.18200016 -2.85599995 5.62500000
-5.16499996 -2.86599994 5.55499983
-5.35500002 -2.72399998 5.45300007
-5.16200018 -2.86700010 5.47900009
-5.41900015 -2.68199992 6.00299978
-5.41699982 -2.68300009 5.97800016
-5.40799999 -2.69000006 5.96899986
-5.40100002 -2.69400001 5.95900011
-5.39200020 -2.70099998 5.94999981
-5.38500023 -2.70499992 5.94000006
-5.37699986 -2.71099997 5.93100023
-5.36600018 -2.71900010 5.92199993
-5.18499994 -2.84500003 5.64900017
-5.17999983 -2.84800005 5.63800001
-5.18200016 -2.84599996 5.62400007
-5.35900021 -2.71199989 5.44999981
-5.15700006 -2.86100006 5.47900009
-5.42799997 -2.65899992 6.04099989
-5.42199993 -2.66300011 6.03000021
-5.41699982 -2.66700006 6.01900005
-5.41400003 -2.66899991 6.00799990
-5.40000010 -2.67899990 5.98799992
-5.39400005 -2.68300009 5.97800016
-5.38500023 -2.68899989 5.96899986
-5.37599993 -2.69600010 5.96000004
-5.35699987 -2.71000004 5.95499992
-5.36600018 -2.70300007 5.93800020
-5.36399984 -2.69099998 5.45100021
-5.14599991 -2.85200000 5.48600006
-5.14300013 -2.85400009 5.47399998
-5.21600008 -2.79900002 5.40700006
-5.20300007 -2.80800009 5.39900017
-5.42600012 -2.64599991 6.05100012
-5.41900015 -2.65100002 6.04099989
-5.41499996 -2.65300012 6.02899981
-5.40799999 -2.65799999 6.01900005
-5.38500023 -2.67400002 5.99100018
-5.37599993 -2.68000007 5.98199987
-5.33900023 -2.70700002 5.97200012
-5.33799982 -2.70700002 5.95900011
-5.37200022 -2.67000008 5.44399977
-5.13399982 -2.84500003 5.48699999
-5.21600008 -2.78299999 5.40299988
-5.20800018 -2.78900003 5.39400005
-5.44299984 -2.62599993 6.14799976
-5.42199993 -2.63899994 6.05399990
-5.41599989 -2.64299989 6.04300022
-5.41099977 -2.64599991 6.03200006
-5.40100002 -2.65300012 6.02400017
-5.39400005 -2.65899992 6.01399994
-5.38199997 -2.66700006 6.00600004
-5.33300018 -2.70199990 5.97599983
-5.33199978 -2.70199990 5.96299982
-5.15999985 -2.81999993 5.64599991
-5.38700008 -2.64899993 5.43900013
-5.13000011 -2.83800006 5.48999977
-5.12799978 -2.83899999 5.47800016
-5.21199989 -2.77500010 5.39300013
-5.45300007 -2.60200000 6.15899992
-5.45100021 -2.60400009 6.14699984
-5.44899988 -2.60500002 6.13500023
-5.40799999 -2.63299990 6.05000019
-5.39599991 -2.64100003 6.04199982
-5.38700008 -2.64800000 6.03399992
-5.38000011 -2.65199995 6.02299976
-5.31899977 -2.69600010 5.97200012
-5.17600012 -2.79299998 5.68200016
-5.16800022 -2.79800010 5.67199993
-5.16400003 -2.80100012 5.66099977
-5.41200018 -2.61400008 5.43300009
-5.11800003 -2.82999992 5.48600006
-5.21199989 -2.75900006 5.38399982
-5.45300007 -2.58699989 6.19099998
-5.44999981 -2.58899999 6.17899990
-5.44999981 -2.58899999 6.16699982
-5.44199991 -2.59400010 6.13100004
-5.30600023 -2.68899989 5.99599981
-5.30499983 -2.68899989 5.98400021
-5.19199991 -2.76500010 5.69500017
-5.18100023 -2.77200007 5.68599987
-5.42199993 -2.59100008 5.43499994
-5.10400009 -2.82299995 5.48400021
-5.45200014 -2.57800007 6.20300007
-5.45300007 -2.57699990 6.18900013
-5.44999981 -2.57999992 6.17799997
-5.44700003 -2.58100009 6.16599989
-5.44500017 -2.58200002 6.15399981
-5.40999985 -2.60599995 6.07900000
-5.30000019 -2.68400002 5.99700022
-5.30200005 -2.68199992 5.98400021
-5.07999992 -2.83100009 5.50500011
-5.10099983 -2.81599998 5.48400021
-5.45499992 -2.55999994 6.20100021
-5.44799995 -2.56500006 6.19099998
-5.44700003 -2.56500006 6.17799997
-5.43400002 -2.57399988 6.15799999
-5.42899990 -2.57800007 6.14799976
-5.42299986 -2.58200002 6.13800001
-5.28999996 -2.67600012 6.04099989
-5.28200006 -2.68099999 6.01800013
-5.28599977 -2.67799997 6.00299978
-5.09899998 -2.79999995 5.48400021
-5.44199991 -2.55299997 6.19700003
-5.43200016 -2.55999994 6.17600012
-5.42600012 -2.56399989 6.16599989
-5.42100000 -2.56699991 6.15500021
-5.41499996 -2.57100010 6.14499998
-5.27500010 -2.66899991 6.02500010
-5.26200008 -2.67899990 6.01700020
-5.44099998 -2.53500009 5.48000002
-5.19099998 -2.71300006 5.34899998
-5.19099998 -2.71300006 5.33599997
-5.43300009 -2.54900002 6.18800020
-5.42700005 -2.55299997 6.17799997
-5.42100000 -2.55699992 6.16699982
-5.41400003 -2.56200004 6.15700006
-5.27199984 -2.66199994 6.02600002
-5.45200014 -2.51799989 5.50000000
-5.44500017 -2.52300000 5.48999977
-5.18699980 -2.70600009 5.32499981
-5.39300013 -2.55900002 6.08099985
-5.16300011 -2.70600009 5.32700014
-5.19299984 -2.68400002 5.30299997
-5.19000006 -2.69000006 6.14099979
-5.16599989 -2.68700004 5.30900002
-5.19299984 -2.66599989 5.28599977
-5.19199991 -2.67899990 6.15000010
-5.19500017 -2.67600012 6.13500023
-5.20900011 -2.66599989 6.11700010
-5.22700024 -2.65300012 6.08199978
-5.23199987 -2.64800000 6.06699991
-5.19399977 -2.65599990 5.28299999
-5.36999989 -2.53399992 6.09899998
-5.27799988 -2.58100009 5.35400009
-5.18900013 -2.64400005 5.30000019
-5.15999985 -2.66499996 5.29799986
-5.13700008 -2.68099999 5.29400015
-5.25899982 -2.59200001 5.23400021
-5.36299992 -2.52300000 6.10799980
-5.35699987 -2.52699995 6.09800005
-5.19999981 -2.64000010 6.10300016
-5.14200020 -2.66100001 5.29899979
-5.11899996 -2.67700005 5.29500008
-5.23600006 -2.59200001 5.23799992
-5.35500002 -2.51999998 6.11000013
-5.34899998 -2.52399993 6.09999990
-5.19000006 -2.63800001 6.10500002
-5.11999989 -2.66700006 5.29300022
-5.20900011 -2.60200000 5.23400021
-5.34100008 -2.51200008 6.11399984
-5.17299986 -2.63299990 6.11000013
-4.93499994 -2.78800011 5.49100018
-5.27299976 -2.53900003 5.23299980
-5.20599985 -2.58699989 5.23299980
-5.34100008 -2.49600005 6.11999989
-5.16499996 -2.62199998 6.12099981
-5.15399981 -2.63000011 6.11199999
-4.92399979 -2.77800012 5.48899984
-5.26499987 -2.52800012 5.23000002
-5.10200024 -2.64499998 5.27899981
-5.16400003 -2.61500001 6.12099981
-5.15299988 -2.62299991 6.11199999
-4.91900015 -2.77399993 5.49100018
-5.09700012 -2.64100003 5.28100014
-5.10099983 -2.63800001 5.26700020
-5.12799978 -2.62299991 6.12500000
-5.12699986 -2.62400007 6.11299992
-4.90799999 -2.76399994 5.51000023
-4.90600014 -2.76600003 5.49900007
-5.08799982 -2.63000011 5.27400017
-5.10200024 -2.61999989 5.25600004
-4.89599991 -2.75399995 5.49599981
-5.07700014 -2.61999989 5.27199984
-5.09999990 -2.60299993 5.25000000
-5.11100006 -2.59500003 5.23400021
-4.89499998 -2.74699998 5.50500011
-4.88899994 -2.75200009 5.49499989
-5.07299995 -2.61500001 5.28200006
-5.07399988 -2.61400008 5.26900005
-5.09800005 -2.59699988 5.24700022
-5.11700010 -2.58299994 5.22800016
-5.09399986 -2.60599995 6.18200016
-5.08599997 -2.60999990 6.14599991
-4.88600016 -2.73699999 5.50899982
-4.88000011 -2.74099994 5.49800014
-5.05900002 -2.60800004 5.28800011
-5.05900002 -2.60800004 5.27500010
-5.09899998 -2.57800007 5.23400021
-5.05499983 -2.61400008 6.12400007
-4.87599993 -2.72499990 5.51700020
-4.87200022 -2.72700000 5.50600004
-5.04600000 -2.59899998 5.29699993
-5.05200005 -2.59500003 5.28200006
-5.04300022 -2.60100007 5.27299976
-5.10099983 -2.55800009 5.23799992
-5.04300022 -2.61500001 6.12799978
-4.87300014 -2.72000003 5.51700020
-4.87300014 -2.72000003 5.50400019
-5.05900002 -2.58500004 5.36700010
-5.05399990 -2.58800006 5.35699987
-5.05000019 -2.58999991 5.34499979
-5.04500008 -2.59400010 5.33400011
-5.04099989 -2.59599996 5.32299995
-5.03999996 -2.59599996 5.31099987
-5.04500008 -2.59299994 5.29600000
-5.03399992 -2.59899998 5.27500010
-5.10200024 -2.55100012 5.23600006
-5.09600019 -2.55399990 5.22499990
-5.03499985 -2.60400009 6.13399982
-5.01200008 -2.61999989 6.13100004
-4.86499977 -2.70900011 5.52299976
-5.02799988 -2.58800006 5.28000021
-5.07600021 -2.55299997 5.24900007
-5.09600019 -2.53800011 5.22900009
-5.02799988 -2.59100008 6.13199997
-4.99300003 -2.61599994 6.13500023
-4.86600018 -2.69000006 5.53100014
-5.01200008 -2.58100009 5.28200006
-5.09899998 -2.51799989 5.22300005
-4.98899984 -2.61100006 6.13700008
-4.84899998 -2.69499993 5.55200005
-4.86800003 -2.68099999 5.53100014
-5.00899982 -2.57500005 5.28399992
-5.09899998 -2.50999999 5.22399998
-4.96600008 -2.61100006 6.14900017
-4.99800014 -2.56699991 5.27799988
-5.09700012 -2.49600005 5.21500015
-4.95400000 -2.60100007 6.14699984
-4.92700005 -2.59899998 5.30999994
-5.09999990 -2.47499990 5.21999979
-4.92799997 -2.58899999 5.30600023
-4.89900017 -2.59599996 6.14900017
-4.98699999 -2.51300001 5.28100014
-4.85300016 -2.61999989 6.18200016
-4.89799976 -2.58800006 6.14900017
-4.98400021 -2.50600004 5.28200006
-4.98199987 -2.50699997 5.26999998
-4.84299994 -2.60999990 6.18100023
-4.98400021 -2.48900008 5.27699995
-5.35099983 -2.28099990 6.18400002
-5.35300016 -2.27099991 6.18300009
-5.35200024 -2.25500011 6.17799997
-5.31300020 -2.38400006 6.20200014
-5.31799984 -2.36500001 6.20200014
-5.30900002 -2.35299993 6.21099997
-5.33699989 -2.32500005 6.19600010
-5.34299994 -2.31999993 6.17999983
-5.35300016 -2.29699993 6.18900013
-5.29699993 -3.77800012 4.12799978
-5.29300022 -3.76300001 4.17399979
-5.29699993 -3.75900006 4.15899992
-5.30200005 -3.75399995 4.14599991
-5.30200005 -3.75399995 4.13299990
-5.28900003 -3.75600004 4.20100021
-5.28999996 -3.75500011 4.18800020
-5.29300022 -3.75200009 4.17500019
-5.29699993 -3.74900007 4.16099977
-5.30200005 -3.74499989 4.14699984
-5.30399990 -3.74300003 4.13399982
-5.28399992 -3.74399996 4.24399996
-5.28800011 -3.74000001 4.23000002
-5.29300022 -3.73600006 4.21600008
-5.29400015 -3.73499990 4.20300007
-5.29500008 -3.73399997 4.19000006
-5.29600000 -3.73300004 4.17700005
-5.29799986 -3.73099995 4.16300011
-5.30499983 -3.72499990 4.14900017
-5.27600002 -3.73200011 4.28200006
-5.28599977 -3.72399998 4.26599979
-5.28900003 -3.72099996 4.25199986
-5.28999996 -3.72000003 4.23899984
-5.28900003 -3.72000003 4.22700024
-5.28999996 -3.71900010 4.21299982
-5.28900003 -3.71900010 4.20100021
-5.29099989 -3.71799994 4.18800020
-5.28200006 -3.71799994 4.29500008
-5.28599977 -3.71399999 4.28100014
-5.28700018 -3.71300006 4.26800013
-5.28800011 -3.71099997 4.25400019
-5.28700018 -3.71199989 4.24300003
-5.28800011 -3.71099997 4.22900009
-5.28700018 -3.71099997 4.21700001
-5.28999996 -3.70900011 4.20400000
-5.27699995 -3.70600009 4.33699989
-5.28000021 -3.70400000 4.32399988
-5.28499985 -3.69899988 4.30900002
-5.28700018 -3.69700003 4.29500008
-5.28700018 -3.69700003 4.28299999
-5.28700018 -3.69600010 4.26999998
-5.28499985 -3.69799995 4.25799990
-5.28299999 -3.69899988 4.24599981
-5.28200006 -3.69899988 4.23400021
-5.27400017 -3.69099998 4.36899996
-5.27799988 -3.68700004 4.35500002
-5.28299999 -3.68300009 4.34100008
-5.28399992 -3.68199992 4.32800007
-5.28399992 -3.68199992 4.31500006
-5.28399992 -3.68099999 4.30200005
-5.28299999 -3.68199992 4.28999996
-5.28299999 -3.68099999 4.27699995
-5.28299999 -3.68099999 4.26399994
-5.28599977 -3.67899990 4.25099993
-5.28200006 -3.67499995 4.39099979
-5.28100014 -3.67499995 4.37900019
-5.28200006 -3.67400002 4.36600018
-5.28299999 -3.67300010 4.35300016
-5.28499985 -3.67100000 4.33900023
-5.28499985 -3.67100000 4.32700014
-5.30100012 -3.62800002 4.49300003
-5.29500008 -3.62899995 4.38000011
-5.28700018 -3.63599992 4.37099981
-5.28499985 -3.63700008 4.35799980
-5.27699995 -3.64299989 4.34800005
-5.27199984 -3.64700007 4.33699989
-5.26800013 -3.64899993 4.32600021
-5.28100014 -3.63400006 4.54199982
-5.28499985 -3.63000011 4.52799988
-5.28700018 -3.62899995 4.51399994
-5.28800011 -3.62700009 4.50099993
-5.28800011 -3.62700009 4.48799992
-5.28700018 -3.62700009 4.47599983
-5.28599977 -3.62700009 4.46299982
-5.28100014 -3.63100004 4.42700005
-5.28100014 -3.63000011 4.41400003
-5.28100014 -3.63000011 4.40100002
-5.27699995 -3.63299990 4.38999987
-5.27600002 -3.63299990 4.37799978
-5.27299976 -3.63499999 4.36600018
-5.26999998 -3.63700008 4.35400009
-5.29099989 -3.60899997 4.57100010
-5.28999996 -3.60899997 4.55900002
-5.29199982 -3.60800004 4.54600000
-5.29099989 -3.60800004 4.53299999
-5.28999996 -3.60800004 4.51999998
-5.28800011 -3.60999990 4.50799990
-5.29300022 -3.60599995 4.49399996
-5.28399992 -3.61199999 4.47200012
-5.28000021 -3.61400008 4.43499994
-5.27600002 -3.61700010 4.42399979
-5.27400017 -3.61899996 4.41099977
-5.26999998 -3.62199998 4.40000010
-5.26599979 -3.62400007 4.38800001
-5.29099989 -3.59200001 4.59299994
-5.29099989 -3.59200001 4.57999992
-5.29300022 -3.58999991 4.56599998
-5.29300022 -3.58999991 4.55399990
-5.28999996 -3.59100008 4.54199982
-5.28900003 -3.59299994 4.53000021
-5.28499985 -3.59500003 4.51800013
-5.28499985 -3.59500003 4.50600004
-5.28200006 -3.59699988 4.49399996
-5.27199984 -3.60299993 4.43300009
-5.26700020 -3.60700011 4.42199993
-5.27500010 -3.59999990 4.40700006
-5.28000021 -3.58800006 4.49499989
-5.29400015 -3.53900003 4.75799990
-5.29699993 -3.53600001 4.74499989
-5.29699993 -3.53600001 4.73199987
-5.30600023 -3.52800012 4.71600008
-5.28900003 -3.52699995 4.81199980
-5.29899979 -3.51799989 4.78299999
-5.30000019 -3.51600003 4.76900005
-5.30000019 -3.51600003 4.75600004
-5.30000019 -3.51600003 4.74399996
-5.29799986 -3.51699996 4.73199987
-5.29799986 -3.51699996 4.71899986
-5.29600000 -3.51799989 4.70699978
-5.29400015 -3.51999998 4.69500017
-5.29199982 -3.52099991 4.68300009
-5.29799986 -3.50099993 4.81899977
-5.29799986 -3.50099993 4.80600023
-5.29799986 -3.50099993 4.79400015
-5.29799986 -3.50099993 4.78100014
-5.29600000 -3.50099993 4.76900005
-5.29600000 -3.50099993 4.75600004
-5.29500008 -3.50200009 4.74399996
-5.29400015 -3.50200009 4.73099995
-5.28999996 -3.50500011 4.71999979
-5.28700018 -3.50699997 4.70800018
-5.28399992 -3.50900006 4.69700003
-5.27899981 -3.51300001 4.68499994
-5.27699995 -3.51399994 4.67299986
-5.27299976 -3.51699996 4.66200018
-5.27600002 -3.51399994 4.64799976
-5.25000000 -3.53299999 4.60599995
-5.29300022 -3.47700000 4.79699993
-5.29099989 -3.47900009 4.78399992
-5.28900003 -3.48000002 4.77199984
-5.28499985 -3.48200011 4.76100016
-5.28599977 -3.48200011 4.74800014
-5.28000021 -3.48600006 4.73699999
-5.27400017 -3.49099994 4.72599983
-5.26999998 -3.49300003 4.71500015
-5.26700020 -3.49499989 4.70300007
-5.26000023 -3.50000000 4.69299984
-5.25600004 -3.50399995 4.68100023
-5.24900007 -3.50900006 4.67100000
-5.24100018 -3.51500010 4.66099977
-5.22900009 -3.52300000 4.62599993
-5.29600000 -3.46099997 4.91599989
-5.29699993 -3.46000004 4.90299988
-5.30000019 -3.45700002 4.88899994
-5.29699993 -3.45900011 4.87699986
-5.29699993 -3.45900011 4.86399984
-5.28700018 -3.46499991 4.80399990
-5.28599977 -3.46600008 4.79099989
-5.28200006 -3.46900010 4.78000021
-5.27799988 -3.47099996 4.76800013
-5.27699995 -3.47199988 4.75600004
-5.27199984 -3.47600007 4.74499989
-5.26499987 -3.48000002 4.73400021
-5.26200008 -3.48300004 4.72300005
-5.25600004 -3.48699999 4.71199989
-5.25000000 -3.49200010 4.70100021
-5.24200010 -3.49799991 4.69099998
-5.23199987 -3.50500011 4.68100023
-5.19700003 -3.53200006 4.67999983
-5.28299999 -3.45799994 4.80299997
-5.27899981 -3.46099997 4.79099989
-5.27600002 -3.46300006 4.77899981
-5.27600002 -3.46300006 4.76599979
-5.27500010 -3.46399999 4.75400019
-5.26399994 -3.47199988 4.74499989
-5.25699997 -3.47700000 4.73400021
-5.25299978 -3.48000002 4.72300005
-5.24499989 -3.48600006 4.71299982
-5.18599987 -3.53200006 4.69500017
-5.27199984 -3.44899988 4.80299997
-5.26599979 -3.45300007 4.79199982
-5.26000023 -3.45700002 4.78200006
-5.27400017 -3.44600010 4.76399994
