4.45800018 6.03499985 2.72000003
4.46299982 6.02600002 2.71000004
4.46799994 6.01599979 2.70000005
4.47599983 6.00299978 2.69000006
4.48299980 5.98899984 2.68000007
4.49100018 5.97399998 2.67100000
4.50099993 5.95800018 2.66100001
4.50899982 5.94099998 2.65199995
4.51900005 5.92399979 2.64299989
4.53599977 5.89300013 2.63599992
4.49900007 5.98600006 2.74300003
4.49399996 5.99700022 2.73000002
4.48899984 6.00699997 2.71700001
4.49100018 6.00199986 2.70499992
4.49599981 5.99399996 2.69499993
4.50199986 5.98299980 2.68499994
4.50799990 5.97300005 2.67499995
4.51599979 5.95800018 2.66499996
4.52400017 5.94299984 2.65599990
4.53200006 5.92899990 2.64599991
4.54199982 5.90999985 2.63700008
4.55399990 5.88899994 2.62800002
4.56599998 5.86600018 2.61999989
4.58199978 5.83799982 2.61199999
4.51999998 5.97900009 2.69300008
4.52400017 5.97100019 2.68300009
4.53000021 5.96099997 2.67300010
4.53700018 5.94799995 2.66300011
4.54400015 5.93499994 2.65300012
4.55200005 5.92100000 2.64299989
4.55999994 5.90600014 2.63299990
4.57100010 5.88700008 2.62500000
4.58099985 5.86800003 2.61500001
4.59299994 5.84700012 2.60700011
4.60400009 5.82600021 2.59800005
4.53900003 5.96000004 2.68499994
4.54400015 5.95100021 2.67400002
4.55000019 5.94099998 2.66400003
4.55600023 5.92999983 2.65400004
4.56300020 5.91800022 2.64400005
4.57000017 5.90500021 2.63400006
4.57900000 5.88800001 2.62500000
4.58900023 5.86999989 2.61500001
4.59899998 5.85099983 2.60599995
4.61100006 5.82999992 2.59800005
4.62300014 5.80800009 2.58899999
4.57900000 5.91800022 2.67300010
4.57999992 5.91499996 2.66199994
4.58500004 5.90799999 2.65100002
4.58900023 5.89900017 2.64100003
4.59600019 5.88800001 2.63100004
4.60200024 5.87599993 2.61999989
4.60900021 5.86299992 2.60999990
4.61999989 5.84399986 2.60200000
4.63000011 5.82600021 2.59200001
4.64099979 5.80499983 2.58299994
4.65500021 5.77899981 2.57599998
4.60799980 5.89099979 2.66700006
4.60799980 5.89099979 2.65499997
4.61000013 5.88800001 2.64299989
4.61399984 5.88100004 2.63299990
4.61999989 5.87099981 2.62199998
4.62900019 5.85500002 2.61299992
4.63600016 5.84200001 2.60299993
4.64599991 5.82299995 2.59400010
4.65600014 5.80600023 2.58400011
4.66800022 5.78399992 2.57599998
4.68400002 5.75500011 2.56800008
4.62400007 5.87799978 2.66000009
4.62599993 5.87500000 2.64800000
4.62900019 5.86899996 2.63700008
4.63199997 5.86299992 2.62599993
4.63899994 5.85099983 2.61599994
4.64599991 5.84000015 2.60599995
4.65299988 5.82600021 2.59599996
4.66300011 5.80800009 2.58599997
4.67299986 5.78999996 2.57800007
4.68499994 5.76700020 2.56900001
4.70100021 5.73799992 2.56100011
4.66800022 5.82800007 2.62700009
4.66900015 5.82700014 2.61599994
4.67500019 5.81699991 2.60500002
4.67899990 5.80999994 2.59400010
4.68800020 5.79300022 2.58400011
4.69799995 5.77500010 2.57500005
4.70900011 5.75500011 2.56599998
4.72399998 5.72700024 2.55800009
4.74100018 5.69700003 2.55100012
4.69899988 5.79799986 2.61899996
4.69999981 5.79699993 2.60700011
4.70400000 5.78999996 2.59699988
4.71000004 5.78000021 2.58599997
4.71700001 5.76599979 2.57599998
4.72800016 5.74800014 2.56699991
4.73999977 5.72499990 2.55800009
4.75500011 5.69799995 2.54999995
4.71999979 5.77600002 2.61400008
4.71899986 5.77799988 2.60200000
4.72200012 5.77299976 2.58999991
4.73000002 5.76000023 2.57999992
4.73899984 5.74300003 2.57100010
4.74800014 5.72599983 2.56100011
4.76000023 5.70400000 2.55200005
4.75500011 5.74100018 2.59999990
4.75600004 5.73999977 2.58800006
4.76100016 5.73199987 2.57800007
4.76800013 5.71899986 2.56699991
4.77699995 5.70200014 2.55800009
4.78700018 5.68400002 2.54900002
4.78800011 5.71099997 2.59299994
4.78800011 5.71099997 2.58100009
4.79300022 5.70200014 2.56999993
4.80000019 5.68800020 2.55999994
4.80600023 5.67799997 2.54999995
4.80600023 5.69399977 2.58299994
4.80800009 5.69099998 2.57200003
4.81300020 5.68200016 2.56100011
4.76999998 5.67100000 2.54200006
4.77400017 5.67999983 2.54399991
4.78900003 5.65199995 2.53600001
4.80800009 5.61700010 2.52900004
4.79899979 5.66400003 2.53900003
4.81099987 5.64099979 2.52999997
4.82600021 5.61399984 2.52200007
4.84200001 5.58500004 2.51399994
4.81699991 5.65899992 2.53999996
4.82700014 5.64099979 2.52999997
4.84000015 5.61800003 2.52200007
4.85300016 5.59299994 2.51300001
4.86800003 5.56699991 2.50500011
4.88999987 5.52699995 2.49799991
4.82000017 5.67000008 2.55100012
4.82800007 5.65500021 2.54099989
4.83900023 5.63600016 2.53099990
4.84899998 5.61700010 2.52200007
4.86199999 5.59499979 2.51300001
4.87500000 5.57000017 2.50399995
4.88899994 5.54600000 2.49600005
4.90399981 5.51800013 2.48699999
4.99499989 5.35400009 2.44899988
4.84000015 5.66200018 2.56999993
4.84499979 5.65299988 2.55999994
4.85099983 5.64200020 2.54900002
4.85799980 5.63100004 2.53800011
4.86600018 5.61499977 2.52900004
4.87599993 5.59899998 2.51900005
4.88600016 5.57999992 2.50900006
4.89699984 5.56099987 2.50000000
4.90799999 5.54099989 2.49099994
4.91800022 5.52299976 2.48099995
4.92700005 5.50600004 2.47099996
4.94000006 5.48400021 2.46199989
4.95200014 5.46099997 2.45300007
4.96400023 5.44099998 2.44300008
4.97599983 5.41800022 2.43400002
4.98699999 5.39900017 2.42400002
4.99300003 5.38800001 2.41400003
5.00299978 5.36999989 2.40300012
4.87900019 5.61999989 2.56100011
4.88199997 5.61600018 2.54900002
4.88700008 5.60799980 2.53800011
4.89300013 5.59600019 2.52800012
4.90100002 5.58199978 2.51699996
4.90899992 5.56799984 2.50699997
4.91800022 5.55200005 2.49699998
4.92700005 5.53499985 2.48699999
4.93499994 5.52199984 2.47700000
4.94299984 5.50799990 2.46700001
4.95200014 5.49100018 2.45700002
4.96199989 5.47499990 2.44700003
4.97100019 5.45800018 2.43700004
4.97900009 5.44299984 2.42700005
4.98999977 5.42399979 2.41700006
4.99900007 5.40700006 2.40700006
5.00699997 5.39300013 2.39700007
4.90100002 5.59600019 2.55200005
4.90299988 5.59299994 2.53999996
4.90799999 5.58400011 2.52900004
4.91499996 5.57299995 2.51799989
4.92199993 5.55999994 2.50799990
4.92899990 5.54799986 2.49699998
4.93599987 5.53599977 2.48699999
4.94299984 5.52199984 2.47700000
4.95100021 5.50899982 2.46700001
4.96000004 5.49200010 2.45600009
4.96700001 5.48000002 2.44600010
4.97599983 5.46500015 2.43600011
4.98299980 5.45100021 2.42499995
4.99399996 5.43200016 2.41499996
5.00099993 5.42000008 2.40499997
5.00899982 5.40600014 2.39400005
5.01700020 5.39200020 2.38400006
4.94299984 5.55200005 2.53699994
4.94199991 5.55399990 2.52500010
4.94500017 5.54799986 2.51399994
4.95100021 5.53800011 2.50200009
4.95699978 5.52699995 2.49200010
4.96199989 5.51900005 2.48099995
4.96999979 5.50400019 2.47099996
4.97499990 5.49499989 2.45900011
4.98199987 5.48400021 2.44899988
4.98799992 5.47200012 2.43799996
4.99599981 5.45900011 2.42799997
5.00400019 5.44500017 2.41700006
5.01100016 5.43300009 2.40700006
5.01599979 5.42399979 2.39599991
5.02299976 5.41200018 2.38499999
4.98099995 5.51300001 2.51799989
4.97499990 5.52400017 2.50399995
4.98000002 5.51599979 2.49300003
4.98500013 5.50600004 2.48300004
4.98999977 5.49700022 2.47199988
4.99499989 5.48899984 2.46000004
5.00199986 5.47800016 2.45000005
5.00699997 5.46799994 2.43899989
5.01300001 5.45800018 2.42799997
5.01999998 5.44600010 2.41700006
5.02400017 5.43800020 2.40599990
5.03100014 5.42700005 2.39499998
5.01900005 5.45900011 2.51399994
4.99800014 5.49800014 2.49600005
5.00000000 5.49599981 2.48499990
5.00299978 5.48999977 2.47300005
5.00699997 5.48299980 2.46199989
5.01200008 5.47399998 2.45099998
5.01599979 5.46700001 2.43899989
5.02199984 5.45800018 2.42799997
5.02799988 5.44700003 2.41700006
5.03299999 5.43900013 2.40599990
5.03700018 5.43100023 2.39499998
5.03399992 5.46299982 2.48200011
5.03499985 5.46299982 2.47000003
5.03499985 5.46199989 2.45799994
5.03800011 5.45800018 2.44600010
5.03999996 5.45499992 2.43400002
5.04400015 5.44799995 2.42300010
3.92899990 8.29100037 2.60299993
4.02699995 8.30500031 2.64000010
4.05600023 8.31400013 2.62500000
4.05299997 8.31400013 2.61400008
4.03800011 8.31000042 2.60500002
4.03299999 8.30799961 2.59500003
3.93300009 8.27900028 2.59999990
3.93099999 8.27900028 2.58899999
4.05200005 8.30599976 2.62700009
4.05200005 8.30599976 2.61599994
4.03999996 8.30300045 2.60599995
4.02899981 8.30000019 2.59800005
3.93199992 8.27200031 2.59100008
3.99399996 8.27499962 2.60700011
3.99699998 8.27600002 2.59599996
4.00799990 8.27999973 2.58299994
3.95700002 8.26500034 2.57999992
3.93899989 8.26000023 2.57200003
3.99799991 8.26399994 2.58400011
3.98900008 8.26200008 2.57399988
3.91899991 8.36699963 2.62500000
3.91799998 8.36699963 2.61400008
3.92400002 8.35599995 2.61500001
3.92300010 8.35599995 2.60400009
3.92799997 8.34500027 2.60299993
3.90199995 8.32800007 2.67499995
3.91300011 8.33100033 2.66199994
3.92300010 8.33500004 2.64899993
3.92700005 8.33699989 2.60500002
3.91300011 8.31799984 2.66300011
3.91499996 8.31900024 2.65199995
3.92199993 8.32100010 2.64000010
3.93099999 8.32499981 2.60500002
3.98499990 8.32699966 2.63700008
4.03800011 8.34300041 2.61700010
3.92899990 8.31200027 2.60200000
4.04099989 8.33600044 2.61800003
3.93000007 8.30500031 2.60299993
4.03800011 8.32199955 2.60700011
3.93099999 8.29100037 2.61299992
4.54899979 8.02200031 3.05500007
4.55000019 8.01500034 3.05699992
4.54699993 8.00100040 3.05100012
4.56899977 8.00800037 3.03600001
4.54799986 7.98899984 3.04999995
4.56500006 7.99499989 3.03600001
4.55399990 7.98400021 3.04900002
4.56400013 7.98799992 3.03699994
4.52699995 7.96099997 3.07900000
4.55399990 7.97100019 3.04099989
4.52699995 7.94799995 3.06599998
4.55200005 7.95699978 3.03999996
4.52500010 7.94000006 3.06699991
4.54699993 7.94899988 3.04200006
4.53299999 7.92999983 3.05800009
4.54400015 7.93400002 3.04500008
4.54199982 7.92000008 3.05599999
4.54099989 7.91300011 3.05800009
4.53900003 7.90000010 3.06100011
4.53200006 7.88299990 3.09299994
4.54300022 7.88700008 3.06900001
4.54199982 7.88700008 3.05900002
4.53399992 7.87699986 3.08299994
4.54099989 7.88000011 3.07100010
4.54600000 7.88199997 3.05900002
4.53900003 7.86600018 3.08500004
4.53900003 7.86700010 3.07399988
4.54199982 7.85400009 3.08100009
4.54199982 7.84700012 3.08500004
4.54600000 7.83500004 3.08699989
4.53999996 7.83300018 3.07800007
4.54300022 7.82100010 3.08500004
4.53999996 7.81199980 3.08500004
4.57499981 7.80999994 3.14299989
4.53900003 7.79899979 3.09599996
4.45800018 7.77299976 3.03600001
4.55600023 7.78999996 3.14299989
4.46400023 7.76200008 3.03099990
4.53299999 7.77500010 3.14800000
4.55600023 7.78399992 3.13199997
4.47100019 7.75799990 3.02999997
4.54600000 7.76800013 3.12899995
4.54799986 7.76800013 3.11800003
4.54500008 7.76800013 3.10700011
4.47800016 7.74700022 3.03399992
4.54600000 7.75400019 3.11800003
4.48899984 7.73699999 3.03200006
4.54699993 7.74800014 3.11299992
4.49599981 7.73299980 3.03600001
4.54600000 7.73500013 3.11500001
4.50199986 7.72200012 3.03699994
4.54600000 7.72200012 3.11199999
4.51000023 7.71199989 3.03200006
4.55000019 7.71600008 3.11199999
4.51499987 7.70699978 3.03200006
4.54699993 7.70200014 3.10299993
4.52799988 7.69600010 3.06299996
4.52400017 7.69600010 3.04200006
4.54500008 7.68800020 3.09999990
4.54400015 7.68800020 3.08899999
4.53000021 7.68400002 3.05900002
4.52899981 7.68400002 3.04900002
4.54300022 7.68100023 3.08999991
4.53000021 7.67700005 3.05999994
4.53499985 7.67899990 3.04900002
4.60799980 7.68699980 3.14499998
4.59999990 7.68499994 3.13499999
4.54899979 7.66900015 3.09100008
4.53200006 7.66400003 3.06200004
4.61199999 7.67700005 3.14400005
4.59800005 7.67299986 3.13499999
4.58799982 7.66900015 3.12599993
4.55299997 7.65799999 3.10100007
4.54799986 7.65700006 3.09100008
4.53800011 7.65299988 3.08200002
4.53299999 7.65199995 3.07200003
4.54600000 7.64900017 3.09500003
4.53999996 7.64699984 3.08500004
4.53599977 7.64599991 3.07500005
4.53700018 7.63199997 3.08899999
4.53100014 7.63100004 3.07900000
4.52699995 7.61600018 3.08699989
4.52500010 7.61499977 3.07599998
4.52299976 7.60799980 3.07900000
4.51800013 7.60599995 3.06900001
4.51499987 7.59200001 3.07200003
4.51800013 7.57900000 3.10100007
4.51300001 7.57800007 3.07999992
4.50699997 7.57600021 3.06999993
4.52400017 7.57399988 3.10200000
4.52400017 7.57399988 3.09100008
4.50199986 7.56699991 3.07399988
4.50099993 7.56699991 3.06299996
4.52400017 7.56099987 3.08299994
4.49499989 7.55100012 3.07800007
4.49300003 7.55100012 3.06699991
4.52400017 7.54699993 3.07999992
4.49100018 7.53599977 3.07500005
4.48099995 7.53200006 3.06599998
4.52899981 7.54199982 3.07800007
4.48600006 7.52699995 3.07599998
4.48199987 7.52600002 3.06599998
4.53100014 7.53000021 3.07800007
4.48000002 7.51200008 3.07699990
4.47499990 7.51100016 3.06800008
4.52400017 7.51499987 3.07699990
4.48099995 7.49900007 3.07500005
4.48099995 7.49900007 3.06299996
4.57600021 7.52500010 3.10100007
4.56899977 7.52299976 3.09100008
4.55900002 7.51900005 3.08299994
4.53700018 7.51200008 3.07599998
4.51399994 7.50400019 3.06999993
4.48099995 7.49200010 3.06500006
4.47200012 7.48899984 3.05599999
4.59499979 7.51800013 3.13299990
4.59200001 7.51800013 3.12299991
4.47499990 7.47700024 3.06999993
4.46999979 7.47599983 3.05999994
4.46700001 7.46099997 3.05900002
4.46000004 7.45200014 3.05399990
4.46199989 7.43800020 3.05500007
4.48699999 7.36600018 3.06999993
4.47900009 7.36399984 3.06100011
4.47499990 7.36299992 3.04999995
4.49100018 7.36000013 3.09400010
4.48699999 7.36000013 3.06200004
4.45900011 7.35099983 3.02300000
4.52400017 7.34499979 3.12899995
4.52099991 7.34399986 3.11899996
4.51800013 7.34299994 3.10899997
4.49399996 7.32700014 3.07399988
4.47900009 7.32200003 3.05500007
4.57499981 7.95400000 3.37100005
4.57600021 7.95499992 3.35999990
4.57900000 7.95599985 3.34800005
4.60400009 7.96500015 3.33200002
4.59700012 7.96299982 3.32200003
4.57900000 7.94999981 3.34899998
4.58199978 7.95100021 3.33699989
4.59800005 7.95599985 3.32299995
4.62900019 7.96799994 3.26200008
4.62400007 7.96700001 3.25300002
4.59299994 7.94199991 3.31599998
4.61199999 7.94999981 3.25799990
4.61100006 7.93599987 3.25799990
4.59000015 7.92999983 3.25200009
4.59499979 7.92399979 3.26300001
4.60099983 7.92700005 3.25099993
4.57999992 7.92000008 3.24399996
4.59700012 7.91400003 3.24300003
4.60099983 7.90100002 3.23000002
4.60400009 7.89599991 3.23099995
4.59999990 7.89499998 3.22099996
4.67500019 7.90799999 3.21900010
4.61100006 7.88600016 3.22199988
4.59600019 7.88100004 3.21399999
4.66099977 7.88999987 3.20799994
4.60799980 7.87200022 3.19700003
4.60699987 7.86499977 3.19099998
4.59800005 7.84999990 3.18499994
4.59800005 7.84999990 3.17499995
4.59499979 7.83500004 3.17199993
4.58900023 7.83400011 3.16199994
4.58799982 7.82600021 3.16199994
4.57900000 7.82399988 3.15300012
4.58500004 7.81199980 3.15199995
4.52699995 7.78000021 3.16000009
4.80100012 7.83699989 3.25900006
4.76800013 7.82700014 3.22399998
4.80600023 7.83199978 3.26300001
4.79899979 7.82900000 3.25399995
4.76100016 7.81699991 3.22000003
4.80600023 7.81899977 3.25500011
4.79600000 7.81599998 3.24600005
4.79400015 7.81599998 3.23600006
4.78399992 7.81300020 3.22799993
4.76900005 7.80800009 3.22000003
4.75699997 7.80399990 3.21199989
4.82200003 7.81199980 3.24900007
4.80900002 7.80800009 3.24099994
4.77400017 7.79600000 3.21600008
4.76100016 7.79199982 3.20799994
4.74300003 7.78599977 3.20099998
4.71899986 7.77799988 3.19499993
4.82299995 7.80600023 3.24900007
4.81899977 7.80499983 3.23900008
4.74900007 7.78200006 3.20099998
4.73199987 7.77600002 3.19400001
4.72100019 7.77199984 3.18499994
4.68300009 7.74599981 3.19400001
4.69899988 7.75199986 3.18000007
4.59100008 7.69600010 3.35200000
4.58900023 7.69600010 3.34100008
4.59100008 7.69700003 3.32900000
4.59299994 7.69799995 3.31800008
4.59399986 7.69899988 3.30699992
4.60099983 7.70100021 3.29500008
4.61100006 7.70599985 3.25999999
4.61499977 7.70800018 3.24799991
4.61999989 7.71000004 3.23600006
4.62300014 7.71099997 3.22499990
4.67500019 7.73099995 3.18099999
4.65799999 7.72499990 3.17400002
4.59899998 7.69299984 3.32900000
4.62099981 7.70300007 3.24799991
4.62300014 7.70400000 3.23699999
4.62200022 7.70400000 3.22600007
4.61899996 7.70300007 3.21600008
4.61999989 7.70400000 3.20499992
4.66300011 7.71899986 3.18499994
4.65299988 7.71600008 3.17600012
4.63899994 7.71199989 3.16799998
4.62699986 7.69199991 3.19499993
4.62300014 7.69099998 3.18499994
4.62500000 7.69299984 3.17400002
4.63199997 7.69500017 3.16100001
4.62200022 7.69199991 3.15199995
4.62200022 7.67999983 3.15199995
4.59999990 7.51999998 3.15400004
4.59899998 7.51999998 3.14400005
4.62599993 7.51399994 3.18000007
4.61999989 7.51200008 3.17000008
4.61299992 7.51000023 3.16100001
4.63000011 7.50899982 3.18300009
4.62699986 7.50799990 3.17300010
4.64499998 7.50000000 3.19300008
4.64099979 7.49900007 3.18300009
4.65999985 7.49300003 3.20600009
4.65500021 7.49100018 3.19700003
4.66800022 7.48600006 3.25099993
4.66699982 7.48600006 3.24000001
4.66400003 7.48500013 3.23000002
4.66499996 7.48600006 3.21900010
4.66400003 7.48600006 3.20799994
4.67999983 7.47900009 3.21700001
4.69999981 7.47200012 3.23099995
4.69500017 7.47100019 3.22099996
4.70900011 7.46799994 3.24200010
4.70400000 7.46600008 3.23200011
4.72200012 7.46000004 3.24300003
4.52299976 7.37699986 3.17300010
4.52299976 7.36999989 3.16400003
4.55499983 7.36700010 3.18099999
4.54500008 7.36399984 3.17300010
4.53700018 7.36100006 3.16300011
4.52899981 7.35900021 3.15300012
4.53000021 7.35900021 3.14299989
4.50099993 7.33300018 3.22199988
4.50099993 7.33400011 3.21099997
4.51100016 7.33799982 3.19799995
4.51999998 7.34100008 3.18499994
4.53000021 7.34600019 3.17199993
4.53499985 7.34800005 3.16000009
4.53399992 7.34800005 3.14899993
4.53100014 7.34700012 3.13899994
4.48899984 7.32100010 3.22799993
4.49700022 7.32499981 3.21600008
4.47800016 7.30299997 3.23399997
4.47100019 7.28700018 3.25399995
4.47800016 7.28999996 3.24200010
4.46999979 7.27899981 3.25900006
4.47300005 7.28000021 3.24699998
4.46600008 7.26100016 3.30800009
4.46500015 7.26100016 3.29699993
4.47100019 7.26399994 3.28500009
3.94300008 8.24800014 2.56999993
3.99200010 8.25599957 2.57500005
3.97099996 8.25000000 2.56699991
3.94300008 8.24199963 2.55999994
3.85899997 8.19999981 2.67199993
3.94600010 8.22900009 2.56999993
3.94000006 8.22700024 2.55999994
3.90700006 8.20100021 2.66000009
3.86899996 8.18999958 2.65499997
3.87199998 8.19099998 2.64400005
3.93899989 8.21399975 2.56599998
3.93300009 8.21199989 2.55599999
3.91400003 8.19799995 2.65799999
3.90499997 8.19499969 2.64899993
3.88700008 8.18999958 2.64100003
3.88199997 8.18799973 2.63000011
3.92799997 8.20400047 2.55699992
3.89899993 8.18000031 2.62800002
3.89499998 8.17899990 2.61700010
3.92199993 8.18900013 2.55800009
3.89000010 8.16399956 2.60800004
3.92000008 8.17500019 2.55900002
3.89299989 8.15799999 2.60100007
3.91300011 8.16600037 2.56399989
3.91599989 8.16699982 2.55299997
3.89100003 8.14500046 2.59200001
3.85800004 8.13500023 2.58599997
3.91100001 8.15200043 2.55500007
3.89199996 8.13099957 2.57900000
3.90199995 8.13500023 2.56599998
3.90799999 8.13700008 2.55399990
3.89299989 8.12500000 2.57999992
3.89700007 8.12600040 2.56800008
3.90400004 8.12899971 2.55599999
3.89800000 8.11299992 2.56800008
3.89199996 8.11200047 2.55800009
3.89599991 8.09899998 2.56699991
3.85899997 8.07900047 2.64199996
3.89599991 8.09200001 2.56999993
3.86700010 8.06900024 2.63199997
3.89499998 8.07900047 2.57100010
3.89299989 8.07900047 2.56100011
3.87599993 8.05700016 2.61700010
3.88299990 8.06000042 2.60500002
3.89700007 8.06499958 2.56999993
3.88499999 8.05399990 2.60599995
3.89899993 8.05900002 2.56999993
3.89899993 8.06000042 2.55900002
3.89100003 8.04300022 2.59599996
3.89899993 8.04599953 2.58400011
3.89899993 8.04599953 2.57299995
3.71000004 7.96400023 2.90100002
3.89400005 8.02999973 2.59100008
3.89899993 8.03199959 2.57900000
3.90300012 8.03400040 2.56699991
3.86199999 8.00399971 2.89700007
3.71900010 7.96000004 2.90000010
3.71700001 7.96000004 2.88899994
3.90100002 8.02600002 2.57900000
3.92000008 8.03199959 2.56500006
3.86100006 7.98999977 2.88800001
3.84599996 7.98600006 2.88000011
3.70600009 7.94199991 2.89400005
3.71700001 7.94600010 2.88000011
4.04500008 8.05399990 2.65700006
3.90799999 8.01399994 2.57999992
3.90000010 8.01200008 2.56999993
3.84599996 7.97300005 2.86800003
3.71499991 7.93200016 2.86800003
3.71900010 7.93400002 2.85700011
3.73499990 7.94000006 2.83100009
4.04300022 8.04100037 2.64599991
4.03399992 8.03800011 2.63599992
3.90300012 7.99900007 2.57999992
3.84599996 7.96500015 2.86100006
3.83500004 7.96199989 2.85200000
3.72199988 7.92700005 2.86100006
3.72099996 7.92700005 2.84899998
3.74399996 7.93400002 2.83400011
4.04300022 8.03299999 2.63899994
4.03499985 8.02999973 2.63000011
3.90199995 7.99100018 2.58500004
3.82800007 7.94600010 2.84599996
3.82100010 7.94399977 2.83500004
3.73799992 7.91800022 2.83899999
3.89299989 7.97100019 2.70099998
4.03399992 8.01700020 2.63299990
4.02500010 8.01399994 2.62299991
3.90400004 7.97800016 2.58800006
3.90400004 7.97800016 2.57599998
3.81999993 7.93200016 2.83200002
3.75999999 7.91400003 2.83200002
3.90100002 7.96099997 2.69600010
3.90199995 7.96199989 2.68400002
4.01700020 7.99900007 2.65400004
4.01900005 8.00000000 2.63199997
4.01700020 8.00000000 2.62100005
3.90700006 7.96600008 2.59500003
3.90499997 7.96600008 2.58400011
3.81200004 7.92199993 2.82399988
3.75799990 7.90500021 2.82200003
4.01399994 7.98899984 2.67799997
4.01300001 7.98999977 2.66700006
3.97600007 7.97800016 2.66199994
4.01399994 7.98999977 2.64499998
4.00899982 7.98899984 2.63499999
4.00799990 7.98899984 2.62400007
3.90599990 7.95800018 2.59599996
3.90400004 7.95800018 2.58500004
3.81500006 7.90999985 2.81399989
3.77200007 7.89599991 2.80999994
3.90100002 7.94099998 2.67600012
3.89299989 7.93800020 2.66700006
4.00099993 7.97399998 2.61599994
3.90599990 7.94500017 2.59800005
3.90599990 7.94500017 2.58699989
3.81599998 7.89799976 2.80900002
3.77800012 7.88600016 2.80500007
3.89800000 7.92799997 2.65000010
3.99900007 7.96099997 2.61199999
3.99000001 7.95800018 2.60299993
3.90799999 7.93200016 2.60400009
3.90799999 7.93300009 2.59400010
3.81299996 7.88899994 2.79999995
3.89599991 7.92000008 2.64100003
3.99300003 7.95100021 2.60299993
3.90899992 7.92500019 2.60500002
3.91100001 7.92600012 2.59400010
3.81800008 7.87699986 2.79200006
3.90499997 7.90899992 2.63199997
3.90400004 7.90899992 2.62100005
3.98600006 7.93599987 2.59699988
3.81999993 7.86499977 2.78399992
3.96900010 7.91699982 2.61500001
3.97000003 7.91800022 2.60400009
3.94099998 7.90799999 2.59699988
3.82100010 7.85699987 2.77900004
3.91400003 7.89200020 2.61899996
3.96199989 7.90700006 2.59999990
3.81999993 7.84399986 2.77200007
3.91199994 7.87699986 2.62299991
3.93700004 7.88600016 2.60800004
3.82200003 7.83099985 2.75900006
3.91100001 7.86399984 2.62199998
3.91199994 7.86399984 2.60999990
3.82800007 7.82600021 2.75900006
3.91199994 7.85699987 2.62199998
3.91100001 7.85599995 2.61100006
3.83400011 7.81400013 2.74900007
3.91100001 7.84200001 2.62400007
3.84100008 7.80299997 2.74399996
3.91300011 7.82999992 2.63199997
3.90700006 7.82800007 2.62100005
3.84699988 7.79799986 2.74499989
3.91300011 7.82299995 2.63400006
3.90899992 7.82200003 2.62299991
3.90899992 7.80700016 2.63899994
3.90700006 7.80700016 2.62800002
3.84999990 7.77299976 2.72600007
3.71700001 7.73099995 2.70300007
3.72399998 7.73299980 2.68000007
3.90599990 7.79300022 2.63899994
3.91000009 7.79500008 2.62700009
3.85400009 7.76700020 2.72600007
3.85100007 7.76599979 2.71499991
3.72099996 7.72499990 2.69199991
3.73099995 7.72800016 2.67899990
3.90700006 7.78700018 2.63899994
3.85800004 7.75400019 2.71600008
3.59800005 7.66900015 2.72499990
3.90700006 7.77299976 2.64100003
3.85700011 7.73999977 2.71499991
3.90700006 7.75799990 2.65100002
3.64499998 7.66400003 2.70600009
3.90899992 7.75199986 2.65100002
3.87100005 7.72399998 2.70499992
3.71600008 7.67399979 2.69600010
3.90700006 7.73699999 2.65400004
3.88499999 7.71500015 2.70199990
3.90599990 7.72200012 2.66599989
3.90499997 7.71500015 2.66700006
3.90300012 7.71500015 2.65599990
3.90599990 7.70300007 2.66899991
3.79600000 7.66699982 2.67600012
3.74799991 7.65100002 2.67199993
3.94099998 7.69600010 2.78500009
3.90499997 7.68699980 2.67899990
3.90199995 7.68699980 2.66799998
3.78399992 7.64799976 2.67700005
4.02600002 7.71700001 2.80500007
3.98499990 7.70499992 2.77900004
3.96399999 7.69799995 2.77099991
3.90899992 7.68200016 2.68000007
3.90599990 7.68200016 2.66899991
3.79200006 7.64400005 2.67600012
4.01499987 7.70100021 2.78699994
3.94700003 7.67999983 2.76500010
3.94000006 7.67700005 2.75600004
3.91199994 7.67000008 2.68199992
3.80500007 7.63500023 2.67700005
3.93700004 7.66200018 2.75200009
3.93700004 7.66200018 2.74099994
3.91400003 7.65600014 2.68899989
3.91300011 7.65600014 2.67799997
3.82699990 7.62699986 2.68099999
4.42399979 7.80800009 3.06399989
4.42500019 7.80900002 3.05299997
3.94099998 7.65600014 2.74399996
3.93199992 7.65399981 2.73399997
3.91499996 7.64900017 2.69300008
3.91100001 7.64799976 2.68199992
4.43100023 7.79799986 3.04500008
3.93099999 7.63999987 2.72700000
3.92799997 7.63899994 2.71700001
3.91899991 7.63700008 2.69600010
3.91199994 7.63500023 2.68600011
3.83699989 7.61000013 2.67499995
4.44000006 7.78700018 3.03900003
3.92799997 7.62599993 2.71199989
3.92499995 7.62500000 2.70199990
3.92400002 7.62500000 2.69099998
3.85500002 7.60200024 2.68000007
4.44600010 7.78200006 3.03800011
3.92700005 7.61800003 2.70199990
3.92600012 7.61800003 2.69099998
3.86400008 7.59700012 2.67799997
3.93099999 7.60599995 2.70099998
3.87700009 7.58900023 2.67600012
3.93600011 7.59399986 2.70700002
3.93199992 7.59299994 2.69600010
3.89400005 7.57999992 2.68000007
3.92700005 7.57999992 2.83200002
3.93899989 7.58799982 2.70600009
3.93499994 7.58699989 2.69600010
3.93300009 7.56899977 2.82500005
3.94000006 7.57499981 2.70099998
3.94400001 7.56199980 2.70099998
3.94600010 7.55600023 2.70499992
3.94199991 7.55399990 2.69499993
3.96199989 7.54400015 2.83899999
3.95199990 7.54500008 2.70600009
3.94899988 7.54400015 2.69600010
3.96799994 7.53200006 2.83500004
3.96000004 7.53000021 2.82500005
3.95600009 7.52899981 2.81399989
3.95400000 7.53100014 2.71399999
3.95199990 7.53000021 2.70300007
3.96199989 7.52299976 2.81399989
3.95799994 7.52199984 2.80399990
3.96000004 7.52600002 2.71399999
3.95700002 7.52500010 2.70300007
3.96399999 7.51100016 2.80299997
3.96399999 7.51300001 2.71399999
3.96000004 7.51200008 2.70300007
3.97199988 7.49900007 2.79900002
3.96900010 7.50099993 2.71000004
3.97099996 7.49200010 2.78800011
3.97000003 7.49399996 2.72199988
3.96900010 7.49399996 2.71000004
3.98000002 7.48099995 2.78900003
3.97399998 7.48000002 2.72300005
3.97199988 7.48099995 2.71199989
3.99200010 7.47200012 2.78699994
3.97900009 7.46999979 2.72199988
3.97499990 7.46899986 2.71099997
3.98499990 7.46400023 2.77999997
3.97799993 7.46299982 2.72499990
3.97799993 7.46299982 2.71399999
3.99300003 7.45200014 2.78200006
3.98699999 7.44999981 2.77200007
3.98499990 7.45100021 2.72700000
3.98499990 7.45100021 2.71600008
3.99399996 7.45499992 2.68099999
3.99300003 7.43800020 2.77699995
3.98499990 7.43699980 2.73300004
3.98900008 7.43900013 2.72099996
4.00899982 7.44700003 2.67400002
4.02099991 7.45200014 2.66100001
3.99399996 7.43200016 2.76799989
3.98900008 7.43100023 2.73600006
3.98900008 7.43100023 2.72399998
4.03999996 7.45200014 2.64899993
4.03700018 7.45100021 2.63800001
3.99699998 7.41900015 2.76999998
3.99399996 7.41900015 2.73699999
3.99200010 7.41900015 2.72600007
4.07900000 7.45200014 2.63400006
4.08699989 7.45499992 2.62100005
3.99900007 7.40600014 2.76600003
3.99699998 7.40600014 2.74399996
3.99600005 7.40600014 2.73300004
4.11399984 7.45100021 2.62400007
4.00299978 7.40000010 2.76799989
3.99799991 7.39900017 2.74699998
4.00000000 7.40000010 2.73499990
3.98000002 7.37500000 2.88700008
4.00299978 7.38600016 2.75999999
4.00600004 7.38800001 2.74799991
4.00400019 7.38800001 2.73699999
3.98900008 7.36299992 2.88199997
3.98900008 7.36399984 2.87100005
4.00600004 7.37300014 2.76600003
4.01000023 7.37500000 2.75500011
4.00799990 7.37400007 2.74300003
3.99200010 7.35799980 2.86899996
3.99900007 7.36000013 2.85700011
4.03299999 7.37500000 2.79500008
4.01300001 7.36800003 2.76500010
4.01300001 7.36899996 2.75399995
4.00899982 7.36800003 2.74300003
3.94899988 7.32900000 2.90000010
3.99900007 7.34800005 2.85700011
4.02899981 7.36100006 2.78500009
4.01900005 7.35799980 2.76399994
4.01499987 7.35699987 2.75300002
3.95900011 7.31799984 2.89499998
3.94600010 7.31400013 2.88599992
4.00500011 7.33599997 2.84200001
4.02199984 7.34399986 2.77099991
4.01900005 7.34399986 2.76099992
4.01900005 7.34399986 2.75000000
3.96300006 7.31300020 2.88499999
3.96199989 7.31300020 2.87400007
4.02299976 7.33699989 2.77300000
4.02400017 7.33799982 2.76200008
3.97199988 7.30299997 2.86400008
4.01000023 7.31799984 2.82399988
4.02500010 7.32499981 2.77699995
4.02500010 7.32499981 2.76600003
3.98399997 7.29400015 2.84999990
4.01599979 7.30700016 2.80999994
4.02899981 7.31199980 2.78500009
4.03100014 7.31300020 2.77399993
4.03100014 7.31300020 2.76300001
3.98799992 7.28800011 2.84100008
4.03100014 7.30499983 2.77800012
4.03000021 7.30499983 2.76699996
4.45400000 7.43599987 3.04600000
4.00799990 7.28100014 2.82800007
4.03399992 7.29199982 2.78999996
4.03499985 7.29300022 2.77900004
4.45400000 7.42299986 3.05200005
4.45300007 7.42199993 3.04099989
4.03499985 7.27899981 2.79600000
4.03700018 7.28000021 2.78500009
4.44999981 7.41400003 3.04399991
4.44700003 7.41300011 3.03299999
4.04099989 7.27299976 2.79800010
4.03900003 7.27299976 2.78699994
4.03000021 7.26999998 2.77699995
2.99000001 8.02200031 2.94000006
2.99300003 8.00800037 2.92700005
3.00300002 7.99800014 2.93600011
2.99699998 7.99599981 2.92499995
3.00600004 7.99100018 2.93700004
3.00000000 7.98999977 2.92600012
2.99399996 7.98799992 2.91499996
2.99900007 7.97399998 2.90799999
2.89400005 7.94399977 2.90199995
2.90899992 7.94899988 2.88700008
2.99000001 7.95800018 2.89599991
2.94799995 7.94600010 2.89199996
2.94400001 7.94500017 2.88000011
2.99900007 7.95400000 2.89599991
2.99399996 7.95200014 2.88499999
2.95600009 7.94099998 2.87899995
2.99600005 7.93900013 2.88299990
2.98499990 7.93599987 2.87299991
2.99900007 7.94000006 2.85899997
2.99000001 7.92299986 2.86700010
2.99300003 7.91800022 2.86700010
2.99099994 7.91800022 2.85599995
2.99300003 7.90299988 2.85599995
2.99699998 7.88999987 2.85500002
2.99799991 7.88399982 2.84800005
3.00099993 7.86999989 2.84999990
3.00500011 7.85599995 2.84699988
3.00900006 7.84999990 2.87199998
3.00699997 7.84999990 2.84800005
3.01200008 7.83699989 2.85999990
3.01799989 7.83900023 2.84699988
3.01999998 7.82399988 2.85599995
3.03399992 7.81699991 3.02200007
3.02099991 7.81799984 2.85899997
3.01500010 7.81699991 2.84899998
3.04399991 7.80700016 2.99900007
3.02399993 7.80499983 2.85999990
3.01900005 7.80399990 2.84999990
2.51399994 7.62599993 3.12599993
3.06200004 7.79699993 3.01699996
3.05599999 7.79500008 3.00600004
3.04800010 7.79300022 2.99600005
3.02399993 7.78999996 2.85899997
3.06900001 7.79199982 3.01699996
3.05599999 7.78800011 2.99600005
3.01300001 7.77600002 2.96799994
3.02099991 7.78100014 2.88400006
3.02500010 7.78299999 2.85999990
2.51200008 7.60400009 3.13000011
3.06299996 7.77699995 3.00799990
3.06399989 7.77699995 2.99699998
3.06200004 7.77699995 2.98499990
3.02200007 7.76599979 2.95700002
3.03099990 7.77099991 2.86100006
3.02399993 7.76999998 2.85100007
2.52500010 7.59299994 3.13499999
2.51600003 7.59000015 3.12400007
3.07299995 7.76599979 2.97799993
3.03699994 7.75600004 2.94899988
3.04099989 7.75899982 2.86599994
3.03500009 7.75799990 2.85500002
2.52600002 7.58500004 3.12299991
3.06999993 7.75799990 2.96799994
3.06200004 7.75600004 2.94499993
3.04299998 7.75299978 2.86599994
3.04099989 7.75199986 2.85500002
2.54200006 7.57499981 3.13499999
3.06200004 7.74200010 2.93600011
3.06200004 7.74200010 2.92400002
3.05299997 7.74100018 2.86700010
3.04999995 7.74100018 2.85599995
2.55100012 7.56400013 3.13199997
2.54699993 7.56300020 3.12100005
2.53999996 7.56099987 3.10999990
3.06699991 7.73000002 2.92300010
3.06699991 7.73000002 2.91100001
3.05500007 7.72800016 2.86599994
2.55500007 7.55600023 3.13599992
2.55599999 7.55700016 3.12400007
2.55299997 7.55600023 3.11299992
2.54099989 7.55200005 3.10299993
3.06699991 7.72100019 2.91499996
3.06800008 7.72200012 2.90400004
3.06500006 7.72200012 2.86899996
3.06500006 7.72300005 2.85700011
2.56699991 7.54500008 3.12599993
2.56200004 7.54400015 3.11500001
2.54999995 7.53999996 3.10500002
3.07399988 7.71000004 2.89400005
3.07399988 7.71000004 2.88299990
3.07299995 7.71000004 2.87100005
3.07100010 7.71000004 2.85999990
2.57599998 7.53399992 3.13299990
2.57500005 7.53399992 3.12100005
2.57100010 7.53299999 3.10999990
2.55900002 7.53000021 3.09999990
3.07999992 7.69999981 2.87899995
3.07599998 7.69899988 2.86700010
2.57900000 7.52699995 3.13400006
2.57900000 7.52699995 3.12100005
2.57599998 7.52699995 3.10999990
2.56299996 7.52299976 3.09999990
3.11500001 7.70200014 2.88499999
3.08599997 7.69299984 2.87800002
3.08299994 7.69199991 2.86700010
3.17000008 7.69999981 3.05399990
3.17799997 7.70300007 3.04099989
2.59899998 7.51900005 3.11999989
2.58899999 7.51599979 3.10999990
2.57900000 7.51399994 3.09899998
3.11599994 7.68900013 2.87500000
3.08999991 7.68100023 2.86800003
3.09800005 7.67000008 2.86199999
3.09299994 7.66900015 2.85100007
2.59999990 7.49599981 3.12899995
2.61599994 7.50199986 3.11400008
3.15000010 7.67399979 2.98300004
3.10400009 7.66300011 2.86199999
3.09699988 7.66200018 2.85100007
3.03900003 7.64300013 2.84999990
2.60700011 7.48400021 3.13199997
2.61299992 7.48600006 3.11899996
2.61299992 7.48699999 3.10700011
2.60800004 7.48500013 3.09599996
3.15000010 7.65999985 2.97600007
3.14499998 7.65899992 2.96499991
3.09899998 7.64799976 2.85599995
3.10500002 7.65000010 2.84299994
3.04800010 7.63199997 2.84100008
2.61599994 7.47200012 3.13499999
2.62199998 7.47499990 3.12199998
2.62400007 7.47599983 3.10899997
2.62100005 7.47499990 3.09699988
2.60400009 7.46999979 3.08800006
3.06999993 7.62099981 2.98300004
3.14199996 7.64400005 2.95799994
3.09800005 7.63100004 2.95400000
3.09200001 7.62900019 2.94400001
3.10299993 7.63500023 2.84800005
3.10299993 7.63600016 2.83599997
3.05900002 7.62200022 2.83100009
2.62500000 7.46700001 3.12800002
2.62899995 7.46899986 3.11500001
2.62800002 7.46899986 3.10299993
2.62100005 7.46700001 3.09200001
2.61199999 7.46500015 3.08200002
3.14299989 7.63700008 2.95300007
3.13499999 7.63500023 2.94300008
3.09400010 7.62200022 2.93799996
3.09500003 7.62300014 2.92600012
3.10800004 7.62900019 2.84200001
3.07699990 7.61999989 2.83500004
3.06200004 7.61499977 2.82599998
2.62800002 7.45300007 3.13199997
2.63800001 7.45699978 3.11800003
2.63899994 7.45699978 3.10599995
2.63599992 7.45699978 3.09400010
2.62100005 7.45200014 3.08400011
3.13199997 7.61999989 2.92400002
3.11800003 7.61600018 2.91499996
3.10800004 7.61299992 2.90499997
3.11299992 7.61600018 2.84500003
3.10999990 7.61499977 2.83400011
3.07900000 7.60599995 2.82699990
2.63700008 7.44199991 3.12899995
2.64700007 7.44500017 3.11400008
2.64800000 7.44600010 3.10200000
2.64499998 7.44500017 3.09100008
2.63400006 7.44199991 3.07999992
3.11400008 7.59999990 2.90199995
3.11500001 7.60300016 2.83100009
3.08500004 7.59399986 2.81200004
2.64400005 7.43599987 3.12800002
2.65400004 7.44000006 3.11400008
2.65300012 7.43900013 3.10200000
2.65000010 7.43900013 3.08999991
2.63800001 7.43499994 3.07999992
3.00099993 7.55399990 3.00500011
3.11999989 7.59700012 2.83100009
3.08200002 7.58599997 2.81399989
2.66100001 7.42700005 3.11500001
2.66499996 7.42799997 3.10200000
2.66300011 7.42799997 3.08999991
2.65000010 7.42399979 3.07999992
3.00000000 7.53900003 3.00699997
3.00099993 7.53900003 2.99499989
3.01699996 7.54500008 2.98000002
3.03600001 7.55200005 2.93000007
3.11999989 7.58199978 2.84500003
3.12599993 7.58400011 2.83200002
3.12199998 7.58300018 2.82100010
3.09999990 7.57600021 2.81299996
2.67400002 7.41699982 3.10899997
2.67400002 7.41800022 3.09699988
2.67000008 7.41699982 3.08500004
3.02399993 7.53399992 2.97499990
3.02500010 7.53399992 2.96399999
3.02999997 7.53700018 2.95099998
3.03800011 7.53999996 2.92600012
3.12100005 7.56899977 2.84200001
3.12500000 7.57100010 2.82900000
3.12299991 7.57000017 2.81699991
3.10400009 7.56400013 2.80900002
2.67000008 7.40799999 3.12400007
2.67799997 7.41099977 3.11100006
2.68099999 7.41200018 3.09800005
2.67700005 7.41099977 3.08699989
2.66199994 7.40700006 3.07800007
3.03399992 7.53000021 2.95300007
3.03500009 7.53100014 2.94099998
3.04299998 7.53399992 2.92799997
3.12199998 7.56199980 2.83200002
3.12199998 7.56199980 2.81999993
3.11100006 7.55900002 2.81100011
2.68600011 7.39799976 3.11500001
2.69199991 7.40000010 3.10100007
2.69000006 7.40000010 3.08999991
2.68199992 7.39799976 3.07900000
3.04999995 7.52099991 2.91899991
3.01399994 7.51000023 2.89000010
3.12299991 7.54799986 2.82500005
3.12100005 7.54699993 2.81299996
2.69700003 7.38800001 3.11199999
2.70099998 7.38999987 3.09899998
2.69899988 7.38899994 3.08699989
2.69000006 7.38700008 3.07599998
3.06200004 7.51200008 2.90499997
3.06200004 7.51300001 2.89299989
3.03500009 7.50400019 2.88499999
3.22300005 7.56699991 2.81900001
3.13000011 7.53700018 2.82200003
3.12400007 7.53499985 2.81200004
2.70199990 7.38199997 3.11100006
2.70700002 7.38399982 3.09800005
2.70400000 7.38299990 3.08599997
2.69600010 7.38100004 3.07599998
3.06399989 7.50600004 2.89299989
3.06599998 7.50699997 2.88100004
3.05500007 7.50400019 2.87100005
3.21399999 7.55700016 2.80900002
3.02900004 7.49800014 2.76900005
2.70900011 7.36899996 3.11299992
2.71399999 7.37099981 3.09899998
2.71399999 7.37099981 3.08800006
2.70799994 7.36899996 3.07699990
2.63700008 7.34600019 3.07699990
3.07599998 7.49499989 2.88199997
3.07100010 7.49399996 2.87100005
3.02600002 7.48199987 2.77099991
2.72000003 7.35699987 3.10899997
2.72600007 7.36000013 3.09500003
2.72499990 7.36000013 3.08400011
2.71700001 7.35799980 3.07299995
2.65100002 7.33599997 3.07200003
3.09699988 7.48799992 2.86500001
3.13199997 7.50099993 2.81200004
3.02999997 7.46899986 2.76900005
2.72300005 7.35099983 3.10899997
2.73200011 7.35400009 3.09500003
2.73099995 7.35400009 3.08400011
2.72600007 7.35300016 3.07200003
2.66499996 7.33300018 3.07100010
2.65199995 7.32900000 3.06100011
3.03900003 7.46400023 2.76900005
2.73200011 7.33900023 3.10999990
2.73900008 7.34100008 3.09699988
2.74200010 7.34299994 3.08500004
2.73900008 7.34200001 3.07299995
2.72199988 7.33699989 3.06399989
2.66799998 7.31899977 3.06100011
3.09200001 7.46400023 2.85700011
3.09599996 7.46600008 2.84500003
2.74300003 7.32700014 3.10800004
2.74900007 7.32999992 3.09500003
2.75399995 7.33199978 3.08299994
2.74900007 7.32999992 3.07100010
2.73300004 7.32499981 3.06200004
3.09800005 7.45200014 2.84400010
3.13100004 7.46400023 2.80399990
2.74699998 7.32100010 3.10899997
2.75399995 7.32399988 3.09599996
2.75799990 7.32499981 3.08299994
2.75699997 7.32499981 3.07100010
2.74499989 7.32200003 3.06100011
3.10500002 7.44700003 2.84500003
3.13400006 7.45699978 2.80500007
2.76099992 7.31199980 3.09800005
2.76699996 7.31500006 3.08400011
2.76600003 7.31500006 3.07200003
2.75900006 7.31300020 3.06200004
2.74600005 7.30900002 3.05200005
3.10800004 7.43499994 2.83500004
3.37700009 7.50199986 3.04399991
2.77300000 7.30000019 3.09400010
2.77900004 7.30299997 3.07999992
2.77800012 7.30299997 3.06800008
2.77300000 7.30200005 3.05800009
3.11599994 7.42199993 2.83200002
3.37700009 7.49599981 3.03399992
2.77099991 7.29300022 3.09599996
2.78200006 7.29699993 3.08100009
2.78299999 7.29799986 3.06900001
2.77800012 7.29600000 3.05800009
3.11700010 7.41499996 2.83299994
3.09400010 7.40999985 2.77800012
2.78399992 7.28200006 3.12100005
2.78500009 7.28299999 3.09599996
2.79200006 7.28599977 3.08299994
2.79399991 7.28700018 3.07100010
2.79200006 7.28700018 3.05900002
2.78200006 7.28399992 3.04900002
3.09699988 7.39699984 2.78099990
2.79800010 7.27199984 3.11400008
2.78699994 7.26800013 3.10400009
2.79600000 7.27199984 3.08999991
2.80500007 7.27500010 3.07599998
2.80599999 7.27600002 3.06399989
2.80100012 7.27500010 3.05299997
2.78900003 7.27099991 3.04299998
3.11800003 7.38600016 2.85599995
3.14000010 7.39400005 2.82800007
3.37100005 7.45800018 3.01500010
2.78999996 7.26200008 3.09500003
2.80999994 7.26900005 3.07999992
2.81299996 7.26999998 3.06699991
2.81100011 7.26999998 3.05500007
2.80100012 7.26700020 3.04500008
3.12400007 7.38000011 2.85899997
3.12500000 7.38100004 2.84599996
3.36999989 7.44399977 3.00699997
2.82100010 7.25899982 3.06999993
2.82299995 7.26000023 3.05699992
2.81699991 7.25799990 3.04600000
2.80399990 7.25400019 3.03699994
3.14000010 7.37300014 2.80100012
3.31200004 7.40600014 3.13100004
3.33800006 7.41599989 3.10200000
2.82599998 7.24499989 3.07699990
2.83299994 7.24800014 3.06299996
2.83400011 7.24800014 3.05100012
2.82800007 7.24599981 3.03999996
3.15199995 7.36199999 2.80699992
3.32100010 7.40100002 3.12899995
3.31900001 7.40100002 3.11800003
3.32900000 7.40500021 3.10400009
3.38299990 7.42500019 3.05900002
3.37100005 7.42100000 3.04999995
3.36599994 7.41900015 3.03900003
3.35200000 7.41599989 3.00600004
2.83200002 7.23899984 3.07599998
2.83800006 7.24100018 3.06299996
2.83999991 7.24200010 3.04999995
2.83599997 7.24100018 3.03900003
2.82699990 7.23799992 3.02800012
3.17000008 7.35900021 2.85100007
3.15000010 7.35400009 2.80699992
3.32900000 7.39099979 3.09200001
3.31900001 7.38800001 3.08200002
3.31900001 7.38899994 3.07100010
2.84299994 7.22800016 3.07299995
2.84899998 7.23000002 3.05999994
2.85200000 7.23199987 3.04699993
2.84599996 7.23000002 3.03699994
2.83299994 7.22599983 3.02699995
3.31699991 7.37400007 3.06699991
3.31500006 7.37400007 3.05500007
3.30800009 7.37099981 3.04500008
3.30200005 7.36999989 3.03399992
2.86199999 7.21999979 3.05299997
2.85999990 7.21999979 3.04200006
2.85200000 7.21799994 3.03099990
3.18400002 7.34000015 2.67899990
3.31500006 7.36600018 3.04399991
3.30100012 7.36199999 3.02300000
2.86700010 7.21500015 3.04099989
2.86299992 7.21400023 3.02999997
3.18600011 7.33400011 2.68000007
3.29600000 7.34700012 3.00600004
2.87400007 7.20200014 3.05800009
2.86899996 7.20200014 3.02200007
3.11100006 7.28599977 2.93300009
3.11700010 7.28900003 2.92000008
3.12400007 7.29199982 2.90700006
3.13100004 7.29500008 2.89400005
3.13499999 7.29600000 2.88199997
3.14599991 7.30000019 2.86800003
3.14899993 7.30200005 2.85500002
3.15700006 7.30499983 2.84299994
3.16199994 7.30800009 2.80599999
3.19099998 7.32100010 2.67199993
3.28999996 7.32900000 3.07800007
3.29399991 7.33199978 3.01900005
3.29200006 7.33099985 3.00699997
3.29299998 7.33199978 2.99499989
3.12199998 7.27500010 2.94300008
3.12100005 7.27500010 2.93099999
3.16400003 7.29400015 2.80599999
3.19000006 7.30600023 2.67300010
3.29900002 7.32399988 3.06999993
3.30100012 7.32499981 3.05800009
3.29999995 7.32499981 3.04699993
3.29900002 7.32499981 3.03500009
3.29800010 7.32499981 3.02300000
3.30200005 7.32700014 3.01099992
3.29699993 7.32600021 3.00000000
3.22900009 7.30499983 2.93000007
3.16700006 7.28700018 2.81100011
3.16100001 7.28499985 2.79999995
3.19300008 7.30000019 2.67799997
3.30100012 7.31099987 3.07200003
3.25500011 7.30000019 2.91700006
3.24000001 7.29500008 2.90700006
3.16899991 7.27400017 2.81299996
3.16499996 7.27299976 2.80200005
3.19600010 7.28700018 2.68000007
3.30299997 7.29600000 3.11500001
3.30299997 7.29600000 3.10400009
3.30399990 7.29699993 3.09200001
3.30900002 7.29899979 3.07900000
3.25900006 7.28700018 2.91199994
3.25000000 7.28399992 2.90199995
3.24200010 7.28200006 2.89100003
3.17499995 7.26100016 2.82100010
3.17100000 7.26000023 2.80900002
3.19199991 7.27099991 2.68799996
3.24200010 7.27400017 2.89199996
3.23799992 7.27299976 2.88100004
3.17700005 7.25400019 2.82100010
3.17100000 7.25199986 2.80999994
3.19600010 7.26499987 2.68899989
3.23399997 7.25699997 2.87100005
3.22600007 7.25500011 2.85999990
3.21799994 7.25199986 2.84999990
3.17199993 7.23699999 2.82299995
3.16700006 7.23600006 2.81100011
3.19499993 7.24900007 2.70099998
4.04300022 7.22499990 2.83500004
4.01399994 7.21700001 2.71600008
4.05200005 7.21400023 2.82999992
4.04899979 7.21400023 2.81900001
4.01000023 7.20200014 2.71300006
4.05299997 7.20699978 2.84299994
4.05299997 7.20800018 2.83200002
4.05000019 7.20699978 2.82100010
4.01100016 7.19600010 2.70400000
4.05399990 7.19399977 2.84400010
4.05600023 7.19399977 2.83299994
4.00299978 7.17899990 2.70700002
4.18200016 7.21899986 3.13100004
3.96799994 7.13999987 3.12800002
4.05999994 7.18200016 2.85100007
4.05900002 7.18200016 2.83999991
4.00000000 7.16400003 2.70400000
3.98900008 7.13999987 3.12800002
4.06099987 7.17500019 2.85500002
4.06300020 7.17500019 2.84400010
4.06199980 7.17500019 2.83200002
3.98300004 7.15000010 2.72199988
3.99300003 7.15399981 2.71000004
4.05999994 7.15899992 2.86899996
4.06699991 7.16200018 2.85700011
4.06300020 7.16099977 2.84599996
4.00000000 7.14200020 2.70000005
4.17799997 7.18200016 3.12500000
4.16699982 7.17799997 3.11599994
4.06899977 7.14900017 2.86500001
4.07100010 7.15100002 2.85299993
4.01000023 7.11199999 3.12800002
4.07000017 7.14200020 2.86899996
3.99499989 7.11899996 2.70199990
4.15500021 7.15199995 3.10400009
4.07299995 7.12799978 2.88299990
4.07000017 7.12699986 2.87199998
3.99499989 7.10400009 2.70499992
4.15600014 7.13999987 3.09899998
4.07600021 7.11600018 2.88899994
4.07399988 7.11600018 2.87800002
3.99600005 7.09200001 2.71099997
4.15899992 7.13399982 3.09699988
4.14900017 7.13100004 3.08699989
4.07900000 7.11000013 2.89800000
4.08099985 7.11199999 2.88700008
3.99099994 7.08300018 2.71099997
4.14400005 7.11499977 3.08899999
4.41499996 7.21899986 2.99200010
4.40700006 7.21600008 2.98300004
4.08300018 7.09700012 2.90899992
4.08500004 7.09800005 2.89800000
4.08199978 7.09700012 2.88700008
3.99399996 7.06899977 2.71099997
4.14200020 7.09999990 3.08500004
4.40899992 7.20300007 3.00000000
4.40899992 7.20300007 2.98799992
4.08500004 7.08400011 2.91499996
4.08599997 7.08400011 2.90400004
4.08699989 7.08500004 2.89299989
3.99000001 7.05399990 2.71799994
4.06500006 7.06300020 3.12400007
4.13999987 7.09200001 3.08699989
4.40000010 7.19299984 3.00300002
4.40500021 7.19500017 2.99099994
4.40100002 7.19399977 2.98099995
4.09200001 7.07999992 2.91599989
4.08699989 7.07800007 2.90499997
4.08799982 7.07900000 2.89400005
3.98699999 7.04600000 2.72000003
4.07399988 7.05200005 3.12500000
4.13500023 7.07700014 3.07999992
4.39499998 7.17700005 2.99600005
4.39699984 7.17899990 2.98499990
4.09100008 7.06500006 2.91899991
4.09000015 7.06500006 2.90799999
4.07900000 7.03999996 3.12299991
4.07600021 7.03999996 3.11199999
4.13199997 7.06099987 3.07900000
4.39400005 7.16300011 3.00600004
4.38999987 7.16200018 2.99600005
3.84100008 6.95300007 3.03200006
4.09600019 7.05299997 2.91599989
4.09200001 7.05100012 2.90599990
4.08199978 7.03399992 3.12599993
4.08199978 7.03399992 3.11500001
4.12699986 7.05299997 3.07200003
4.38700008 7.15299988 3.00000000
4.38100004 7.15100002 2.99000001
3.84999990 6.94899988 3.02200007
4.09600019 7.04500008 2.92000008
4.08500004 7.02099991 3.11700010
4.08599997 7.02199984 3.10500002
4.11800003 7.03499985 3.07599998
4.37500000 7.13500023 3.00500011
4.37300014 7.13399982 2.99399996
3.88800001 6.94899988 3.01799989
3.85999990 6.93900013 3.01099992
4.10200024 7.03299999 2.93300009
4.09999990 7.03299999 2.92199993
4.09600019 7.01100016 3.11100006
4.09399986 7.01100016 3.09999990
4.09499979 7.01200008 3.08800006
4.10799980 7.01700020 3.07399988
4.36800003 7.11800003 3.00200009
4.36499977 7.11700010 2.99200010
3.90199995 6.94000006 3.02300000
3.88400006 6.93300009 3.01500010
3.88000011 6.93200016 3.00399995
4.10400009 7.01900005 2.94000006
4.10400009 7.01999998 2.92899990
4.09399986 7.00299978 3.10299993
4.09600019 7.00400019 3.09100008
4.10799980 7.00899982 3.07800007
4.36000013 7.10699987 3.00699997
4.35799980 7.10699987 2.99600005
3.89700007 6.92999983 3.01500010
3.88800001 6.92700005 3.00500011
4.10699987 7.01300001 2.94199991
4.10799980 7.01399994 2.93099999
4.10400009 6.99499989 3.09200001
4.10400009 6.99499989 3.07999992
4.35200024 7.09200001 3.00999999
4.35300016 7.09299994 2.99900007
3.91799998 6.92600012 3.01300001
3.90100002 6.92000008 3.00500011
