4.92799997 6.06699991 8.04199982
4.92899990 6.06799984 8.02799988
4.92600012 6.06799984 8.01599979
4.92000008 6.06500006 8.00599957
4.90899992 6.06099987 7.99800014
4.92899990 6.06099987 8.04500008
4.93200016 6.06300020 8.02999973
4.92999983 6.06300020 8.01700020
4.92700005 6.06199980 8.00500011
4.92199993 6.05999994 7.99499989
4.90899992 6.05399990 7.98899984
4.93599987 6.05000019 8.02000046
4.93699980 6.05100012 8.00599957
4.93499994 6.05100012 7.99399996
4.92999983 6.04899979 7.98299980
4.92199993 6.04600000 7.97399998
4.93900013 6.03800011 8.01299953
4.94299984 6.03999996 7.99700022
4.93900013 6.03900003 7.98600006
4.93900013 6.03900003 7.97200012
4.93300009 6.03700018 7.96299982
4.94099998 6.03200006 8.01200008
4.94399977 6.03399992 7.99700022
4.94299984 6.03399992 7.98400021
4.94600010 6.03599977 7.96899986
4.93800020 6.03299999 7.96000004
4.92899990 6.02899981 7.95200014
4.67600012 5.91800022 7.80700016
4.94500017 6.02099991 7.98999977
4.95100021 6.02400017 7.97300005
4.95200014 6.02500010 7.95900011
4.67700005 5.90399981 7.79899979
4.94899988 6.00899982 7.98299980
4.95300007 6.01100016 7.96799994
4.95499992 6.01300001 7.95300007
4.68499994 5.89300013 7.81799984
4.67899990 5.89099979 7.80800009
4.67600012 5.88999987 7.79600000
4.95300007 6.00400019 7.96999979
4.95900011 6.00799990 7.95300007
4.64099979 5.86399984 7.84499979
4.66099977 5.87500000 7.82000017
4.67799997 5.88299990 7.79699993
4.95599985 5.99300003 7.96500015
4.96000004 5.99499989 7.94999981
4.96199989 5.99599981 7.93599987
4.96600008 5.99900007 7.91900015
4.94799995 5.99100018 7.90299988
4.63800001 5.84600019 7.95100021
4.63199997 5.84299994 7.94099998
4.63100004 5.84399986 7.92799997
4.67600012 5.86999989 7.78200006
4.96500015 5.98299980 7.94500017
4.96500015 5.98299980 7.93100023
4.95800018 5.98199987 7.89400005
4.94700003 5.97700024 7.88700008
4.64599991 5.83500004 7.93100023
4.63100004 5.83199978 7.82999992
4.96299982 5.97499990 7.93499994
4.96999979 5.97900009 7.91800022
4.96500015 5.97700024 7.89400005
4.96000004 5.97499990 7.88299990
4.64400005 5.82800007 7.90799999
4.85200024 5.90600014 8.03400040
4.85500002 5.90799999 8.01799965
4.85799980 5.90999985 8.00300026
4.96899986 5.96400023 7.92799997
4.98899984 5.97499990 7.90299988
4.97200012 5.96700001 7.88500023
4.96899986 5.96600008 7.87400007
4.95800018 5.96199989 7.86600018
4.67899990 5.83599997 7.77500010
4.88000011 5.90700006 7.97499990
4.98000002 5.95800018 7.87900019
4.97599983 5.95699978 7.86800003
4.97100019 5.95499992 7.85699987
4.96500015 5.95200014 7.84700012
4.98500013 5.95100021 7.87900019
4.98199987 5.94999981 7.86800003
4.97900009 5.94999981 7.85599995
4.97499990 5.94799995 7.84499979
4.96799994 5.94500017 7.83500004
4.66900015 5.80600023 7.83599997
4.66800022 5.80499983 7.82399988
4.98600006 5.93900013 7.86299992
4.98699999 5.94000006 7.84899998
4.98299980 5.93900013 7.83799982
4.97700024 5.93599987 7.82800007
4.97200012 5.93400002 7.81699991
4.67700005 5.79600000 7.81599998
4.67799997 5.79699993 7.80200005
4.68900013 5.80499983 7.74200010
4.68800020 5.80399990 7.72900009
4.67500019 5.80000019 7.69600010
4.98799992 5.92600012 7.86399984
4.98999977 5.92799997 7.84999990
4.99300003 5.92999983 7.83500004
4.98999977 5.92899990 7.82299995
4.98500013 5.92700005 7.81199980
4.97900009 5.92500019 7.80200005
4.96999979 5.92000008 7.79400015
4.69199991 5.78999996 7.79699993
4.69099998 5.79300022 7.71600008
4.68499994 5.79099989 7.69299984
4.62599993 5.76300001 7.69700003
4.99100018 5.92000008 7.85699987
4.99499989 5.92199993 7.84200001
4.99499989 5.92299986 7.82800007
4.99300003 5.92199993 7.81599998
4.99100018 5.92199993 7.80399990
4.98600006 5.92000008 7.79300022
4.97499990 5.91499996 7.78499985
4.70200014 5.78700018 7.78599977
4.70100021 5.78700018 7.75899982
4.69600010 5.78700018 7.69500017
4.68699980 5.78299999 7.68599987
4.65799999 5.76999998 7.67399979
4.99399996 5.90899992 7.83799982
4.99800014 5.91099977 7.82200003
5.00000000 5.91300011 7.80800009
4.99900007 5.91300011 7.79500008
4.99700022 5.91200018 7.78299999
4.99200010 5.90999985 7.77199984
4.98500013 5.90799999 7.76300001
4.70100021 5.77199984 7.79600000
4.70300007 5.77299976 7.78100014
4.69999981 5.77299976 7.76900005
4.70200014 5.77400017 7.75500011
4.68900013 5.77099991 7.66699982
4.99300003 5.89499998 7.83500004
5.00000000 5.89900017 7.81899977
5.00299978 5.90100002 7.80299997
5.00600004 5.90299988 7.78800011
5.00500011 5.90299988 7.77600002
5.00099993 5.90100002 7.76499987
4.99800014 5.90000010 7.75299978
4.99399996 5.89900017 7.74200010
4.70800018 5.76300001 7.76200008
4.70599985 5.76300001 7.75000000
4.69899988 5.76200008 7.67299986
5.00099993 5.89200020 7.80900002
5.00699997 5.89499998 7.79199982
5.01100016 5.89799976 7.77699995
5.00799990 5.89699984 7.76499987
5.00799990 5.89699984 7.75199986
5.00400019 5.89599991 7.74100018
4.99800014 5.89300013 7.73000002
4.70900011 5.75600004 7.75199986
4.70200014 5.75299978 7.74300003
4.69000006 5.74700022 7.73600006
4.69899988 5.75199986 7.71700001
4.70599985 5.75699997 7.67299986
5.01100016 5.88299990 7.78200006
5.01399994 5.88600016 7.76700020
5.01300001 5.88600016 7.75400019
5.01499987 5.88700008 7.73999977
5.01300001 5.88700008 7.72800016
5.00799990 5.88500023 7.71700001
5.00000000 5.88100004 7.70800018
4.71000004 5.74300003 7.74300003
4.70900011 5.74399996 7.70400000
4.71600008 5.74800014 7.67299986
4.71199989 5.74700022 7.66200018
5.01300001 5.87300014 7.76399994
5.01900005 5.87599993 7.74700022
5.01999998 5.87699986 7.73400021
5.01999998 5.87799978 7.71999979
5.01800013 5.87699986 7.70699978
5.01399994 5.87500000 7.69700003
5.00799990 5.87300014 7.68699980
4.71500015 5.73199987 7.73699999
4.71899986 5.73500013 7.69500017
4.71799994 5.73500013 7.68200016
4.71999979 5.73699999 7.66699982
5.01399994 5.86499977 7.75400019
5.02099991 5.86899996 7.73699999
5.02299976 5.86999989 7.72200012
5.02500010 5.87200022 7.70800018
5.02199984 5.87099981 7.69600010
5.01999998 5.86999989 7.68400002
5.01399994 5.86800003 7.67399979
5.00600004 5.86399984 7.66499996
5.05200005 5.88800001 7.62699986
4.72300005 5.72900009 7.68300009
4.72700024 5.73199987 7.66699982
4.72200012 5.73000002 7.65600014
5.02099991 5.85599995 7.73400021
5.02899981 5.86000013 7.71500015
5.03000021 5.86100006 7.70200014
5.03100014 5.86199999 7.68800020
5.03000021 5.86199999 7.67500019
5.02699995 5.86100006 7.66400003
5.02099991 5.85799980 7.65399981
5.02600002 5.86199999 7.63800001
5.04799986 5.87300014 7.61299992
4.73799992 5.72300005 7.67199993
4.73799992 5.72399998 7.65799999
5.02899981 5.84600019 7.71299982
5.03200006 5.84800005 7.69799995
5.03499985 5.84999990 7.68300009
5.03599977 5.85099983 7.67000008
5.03599977 5.85099983 7.65600014
5.03299999 5.84999990 7.64499998
5.02500010 5.84700012 7.63600016
5.04400015 5.85699987 7.61199999
5.04600000 5.85799980 7.59800005
4.72800016 5.70200014 7.72800016
4.73199987 5.70400000 7.71199989
5.03800011 5.85699987 7.53700018
5.03599977 5.85599995 7.52400017
4.75199986 5.71600008 7.66099977
4.74499989 5.71299982 7.65199995
5.03900003 5.84399986 7.67399979
5.03900003 5.84499979 7.65999985
5.03800011 5.84499979 7.64699984
5.03499985 5.84399986 7.63500023
5.03000021 5.84200001 7.62500000
5.04600000 5.84999990 7.60300016
4.73899984 5.69899988 7.71400023
4.74100018 5.70100021 7.69999981
5.04199982 5.85099983 7.52600002
5.03700018 5.84899998 7.51499987
4.68699980 5.65199995 7.91300011
4.68599987 5.65299988 7.89900017
4.68699980 5.65299988 7.88500023
5.03800011 5.82999992 7.66800022
5.04400015 5.83300018 7.65100002
5.04600000 5.83500004 7.63700008
5.04500008 5.83500004 7.62400007
5.04099989 5.83400011 7.61199999
5.03999996 5.83400011 7.59999990
5.04400015 5.83599997 7.58500004
4.74399996 5.68699980 7.71899986
4.75400019 5.69199991 7.69999981
4.75799990 5.69500017 7.68400002
5.04300022 5.81799984 7.65899992
5.04699993 5.82100010 7.64300013
5.05200005 5.82399988 7.62699986
5.05100012 5.82399988 7.61399984
5.05100012 5.82499981 7.60099983
5.05299997 5.82600021 7.58699989
5.04899979 5.82399988 7.57600021
4.77400017 5.68800020 7.68300009
4.77699995 5.69000006 7.66800022
5.04300022 5.82499981 7.48600006
5.04600000 5.81300020 7.64599991
5.05000019 5.81599998 7.63100004
5.05499983 5.81899977 7.61499977
5.05600023 5.81899977 7.60099983
5.05700016 5.82100010 7.58699989
5.05299997 5.81899977 7.57600021
5.04500008 5.81599998 7.56699991
5.03800011 5.81199980 7.55800009
4.78499985 5.68699980 7.66599989
4.79199982 5.69099998 7.64900017
4.78299999 5.68699980 7.64099979
5.04300022 5.81799984 7.47599983
5.05900002 5.80600023 7.62099981
5.05800009 5.80600023 7.60799980
5.05999994 5.80800009 7.59399986
5.06199980 5.80999994 7.57999992
5.05999994 5.80900002 7.56699991
5.05800009 5.80800009 7.55600023
5.04600000 5.80299997 7.54899979
4.80600023 5.68400002 7.65000010
4.81099987 5.68699980 7.63399982
5.05000019 5.80800009 7.46799994
5.04799986 5.80800009 7.45499992
5.06199980 5.79500008 7.59299994
5.06699991 5.79799986 7.57700014
5.06699991 5.79899979 7.56300020
5.06500006 5.79799986 7.55200005
5.05999994 5.79600000 7.54099989
5.05100012 5.79199982 7.53200006
5.04199982 5.78800011 7.52400017
4.82900000 5.68200016 7.62400007
4.82900000 5.68200016 7.61000013
5.05100012 5.79500008 7.45300007
4.73999977 5.62400007 7.83799982
4.73500013 5.62200022 7.82800007
4.72399998 5.61700010 7.82000017
4.72399998 5.61700010 7.80600023
4.72900009 5.62099981 7.78999996
5.06400013 5.78999996 7.58300018
5.07000017 5.79400015 7.56699991
5.06799984 5.79300022 7.55399990
5.06699991 5.79300022 7.54099989
5.06300020 5.79199982 7.53100014
5.05700016 5.78900003 7.52099991
4.84000015 5.68100023 7.60900021
4.84399986 5.68300009 7.59399986
5.05499983 5.79099989 7.44299984
5.06500006 5.77600002 7.57800007
5.06899977 5.77899981 7.56300020
5.07499981 5.78200006 7.54699993
5.07399988 5.78200006 7.53399992
5.07100010 5.78100014 7.52199984
5.07000017 5.78100014 7.50899982
5.06400013 5.77899981 7.49900007
4.86399984 5.67899990 7.57900000
5.06099987 5.78000021 7.43599987
4.73199987 5.58900023 7.86600018
4.72700024 5.58799982 7.85500002
4.72300005 5.58599997 7.84399986
4.71899986 5.58500004 7.83199978
4.71999979 5.58599997 7.81799984
5.07299995 5.76700020 7.54799986
5.07800007 5.76999998 7.53200006
5.08099985 5.77199984 7.51700020
5.07999992 5.77199984 7.50500011
5.07700014 5.77099991 7.49300003
5.07499981 5.76999998 7.48099995
5.06199980 5.76499987 7.47499990
5.06400013 5.76700020 7.42100000
4.73000002 5.58099985 7.86899996
4.73400021 5.58400011 7.85200024
5.06599998 5.75699997 7.55299997
5.07600021 5.76200008 7.53499985
5.08199978 5.76499987 7.51800013
5.08300018 5.76700020 7.50400019
5.08300018 5.76700020 7.49200010
5.07999992 5.76599979 7.48000002
5.07700014 5.76499987 7.46799994
5.06899977 5.76100016 7.46000004
5.05999994 5.75799990 7.45100021
5.06500006 5.76100016 7.42199993
5.07999992 5.75000000 7.51399994
5.08900023 5.75500011 7.49700022
5.09000015 5.75600004 7.48299980
5.08799982 5.75600004 7.47100019
5.08799982 5.75600004 7.45800018
5.08400011 5.75500011 7.44600010
5.07999992 5.75299978 7.43599987
5.07499981 5.75099993 7.42500019
5.07299995 5.75000000 7.41300011
5.06500006 5.74700022 7.40399981
4.81500006 5.59999990 7.69600010
5.09399986 5.74399996 7.48000002
5.09299994 5.74399996 7.46799994
5.09399986 5.74499989 7.45499992
5.09299994 5.74499989 7.44199991
5.08900023 5.74300003 7.42999983
5.08799982 5.74300003 7.41800022
5.08799982 5.74300003 7.40500021
5.08099985 5.74100018 7.39599991
5.07800007 5.73899984 7.38399982
4.82200003 5.59499979 7.69600010
4.81400013 5.59200001 7.68599987
4.82999992 5.60200024 7.63700008
5.09200001 5.73600006 7.47200012
5.09700012 5.73899984 7.45599985
5.09700012 5.73999977 7.44299984
5.10200024 5.74300003 7.42700005
5.10099983 5.74200010 7.41499996
5.10500002 5.74499989 7.39900017
5.11899996 5.71799994 7.35500002
4.51399994 6.82700014 8.78199959
4.51300001 6.82700014 8.76900005
4.52600002 6.81899977 8.76900005
4.51999998 6.81699991 8.75800037
4.45100021 6.76900005 8.98099995
4.44899988 6.76900005 8.96700001
4.52899981 6.80900002 8.74899960
4.45800018 6.76300001 8.97700024
4.44999981 6.76100016 8.96800041
4.44700003 6.76000023 8.95499992
4.58599997 6.82000017 8.81400013
4.58900023 6.82100010 8.79800034
4.59399986 6.80999994 8.80000019
4.59299994 6.80999994 8.78600025
4.59499979 6.79899979 8.76799965
4.58799982 6.79600000 8.75800037
4.58300018 6.79500008 8.74600029
4.57200003 6.79099989 8.72500038
4.55800009 6.78700018 8.71899986
4.59200001 6.78999996 8.77700043
4.59100008 6.78999996 8.76299953
4.59200001 6.79199982 8.73499966
4.57100010 6.78399992 8.71899986
4.55800009 6.77899981 8.71199989
4.55200005 6.76200008 8.71199989
4.54899979 6.76200008 8.69900036
4.53900003 6.75799990 8.69099998
4.53299999 6.75600004 8.68099976
4.50699997 6.74700022 8.66800022
4.44799995 6.72399998 8.64700031
4.44899988 6.72499990 8.63199997
4.53700018 6.74499989 8.66300011
4.52799988 6.74200010 8.65400028
4.45499992 6.71400023 8.64099979
4.45800018 6.71600008 8.62500000
4.45400000 6.71500015 8.61299992
4.52699995 6.73500013 8.65699959
4.51999998 6.73199987 8.64700031
4.46000004 6.70900011 8.64000034
4.46199989 6.71000004 8.62500000
4.46099997 6.71000004 8.61200047
4.45400000 6.70800018 8.60200024
4.51599979 6.71600008 8.64099979
4.50500011 6.71199989 8.63300037
4.47200012 6.69899988 8.62500000
4.47200012 6.69999981 8.61100006
4.46899986 6.69899988 8.59899998
4.45800018 6.69500017 8.59000015
4.51700020 6.70400000 8.63599968
4.50699997 6.69999981 8.62699986
4.50099993 6.69799995 8.61699963
4.47700024 6.68900013 8.61699963
4.48099995 6.69099998 8.60099983
4.47499990 6.68900013 8.59000015
4.46600008 6.68499994 8.58100033
4.51200008 6.69600010 8.62500000
4.50299978 6.69299984 8.61600018
4.49399996 6.69000006 8.60700035
4.48899984 6.68800020 8.59599972
4.48400021 6.68599987 8.58500004
4.47200012 6.68200016 8.57800007
4.49499989 6.67500019 8.60299969
4.49700022 6.67700005 8.58800030
4.49300003 6.67500019 8.57600021
4.48400021 6.67199993 8.56799984
4.49399996 6.66200018 8.60400009
4.49900007 6.66400003 8.58699989
4.49900007 6.66499996 8.57400036
4.49399996 6.66300011 8.56200027
4.49800014 6.65700006 8.59500027
4.50299978 6.65999985 8.57800007
4.50199986 6.65999985 8.56499958
4.48999977 6.65500021 8.55700016
4.51000023 6.64799976 8.58199978
4.51200008 6.64900017 8.56599998
4.50899982 6.64900017 8.55399990
4.49599981 6.64300013 8.54800034
4.67299986 6.70100021 8.55200005
4.51700020 6.63700008 8.57499981
4.51900005 6.63899994 8.55900002
4.51499987 6.63800001 8.54699993
4.67799997 6.69500017 8.55000019
4.66900015 6.69199991 8.54199982
4.52099991 6.63100004 8.57299995
4.52400017 6.63299990 8.55700016
4.52099991 6.63299990 8.54500008
4.52400017 6.63399982 8.52999973
4.56199980 6.65600014 8.36800003
4.50899982 6.63500023 8.35700035
4.64799976 6.66599989 8.62899971
4.66900015 6.67799997 8.54699993
4.66300011 6.67600012 8.53600025
4.53100014 6.62200022 8.55799961
4.53299999 6.62300014 8.54300022
4.52799988 6.62200022 8.53199959
4.51700020 6.61800003 8.52400017
4.57399988 6.64699984 8.36600018
4.56699991 6.64400005 8.35599995
4.52400017 6.62799978 8.35299969
4.52099991 6.62599993 8.34099960
4.64900017 6.65299988 8.62399960
4.66200018 6.66200018 8.53199959
4.53800011 6.61100006 8.54899979
4.53999996 6.61299992 8.53499985
4.53200006 6.61000013 8.52499962
4.52299976 6.60599995 8.51700020
4.57200003 6.63299990 8.35000038
4.53399992 6.61700010 8.34399986
4.52699995 6.61499977 8.33399963
4.66800022 6.65399981 8.63000011
4.65500021 6.64900017 8.60999966
4.66499996 6.65600014 8.53499985
4.53900003 6.60500002 8.55300045
4.54300022 6.60699987 8.53600025
4.53900003 6.60599995 8.52499962
4.52799988 6.60200024 8.51700020
4.61600018 6.64099979 8.42399979
4.47700024 6.58199978 8.49100018
4.57600021 6.62699986 8.35099983
4.57200003 6.62599993 8.33899975
4.54799986 6.61700010 8.32499981
4.66400003 6.63899994 8.61400032
4.65600014 6.63700008 8.60400009
4.65600014 6.63800001 8.56200027
4.66499996 6.64300013 8.52900028
4.54699993 6.59499979 8.54199982
4.55100012 6.59700012 8.52600002
4.54500008 6.59499979 8.51599979
4.52699995 6.58799982 8.51200008
4.61999989 6.63000011 8.40299988
4.62200022 6.63100004 8.38799953
4.58099985 6.61600018 8.34200001
4.57200003 6.61299992 8.33300018
4.56199980 6.60900021 8.32600021
4.66400003 6.62599993 8.59700012
4.65899992 6.62500000 8.58500004
4.66099977 6.62699986 8.54300022
4.66699982 6.63000011 8.52600002
4.55100012 6.58300018 8.53800011
4.55399990 6.58500004 8.52200031
4.55200005 6.58400011 8.50899982
4.54400015 6.58099985 8.50000000
4.49300003 6.56099987 8.48700047
4.62900019 6.61999989 8.38099957
4.61700010 6.61600018 8.37399960
4.57800007 6.60200024 8.32800007
4.57399988 6.60099983 8.31599998
4.65999985 6.61700010 8.61600018
4.65899992 6.61800003 8.58800030
4.65999985 6.61899996 8.57299995
4.67000008 6.62500000 8.52600002
4.66499996 6.62300014 8.51500034
4.54899979 6.57499981 8.54100037
4.55900002 6.57999992 8.52099991
4.55800009 6.57900000 8.50899982
4.55200005 6.57800007 8.49800014
4.53999996 6.57299995 8.48999977
4.50400019 6.55900002 8.48400021
4.62599993 6.61299992 8.37199974
4.61800003 6.61000013 8.36200047
4.58300018 6.59700012 8.32699966
4.57999992 6.59600019 8.31499958
4.66300011 6.60599995 8.59399986
4.63899994 6.59600019 8.59399986
4.64300013 6.59800005 8.57800007
4.66099977 6.60699987 8.55300045
4.54600000 6.55800009 8.59300041
4.65899992 6.60799980 8.51200008
4.64599991 6.60200024 8.50699997
4.54799986 6.56099987 8.55000019
4.55200005 6.56300020 8.53299999
4.56599998 6.57000017 8.51200008
4.56300020 6.56899977 8.49899960
4.55900002 6.56799984 8.48799992
4.54799986 6.56300020 8.48099995
4.52600002 6.55499983 8.47900009
4.61999989 6.59800005 8.35499954
4.61399984 6.59600019 8.34500027
4.59200001 6.58799982 8.31700039
4.67100000 6.59700012 8.53299999
4.66900015 6.59700012 8.52000046
4.65999985 6.59399986 8.51099968
4.65500021 6.59200001 8.50100040
4.64799976 6.58900023 8.49100018
4.56799984 6.55600023 8.51000023
4.57100010 6.55800009 8.49400043
4.56699991 6.55700016 8.48200035
4.55900002 6.55399990 8.47299957
4.53999996 6.54600000 8.47099972
4.61299992 6.58099985 8.34500027
4.59000015 6.57200003 8.33100033
4.59899998 6.57600021 8.31200027
4.55000019 6.53700018 8.63500023
4.67799997 6.59299994 8.53199959
4.67399979 6.59200001 8.52000046
4.64499998 6.57999992 8.52400017
4.63899994 6.57800007 8.51399994
4.64799976 6.58199978 8.49400043
4.57499981 6.55200005 8.50899982
4.57499981 6.55200005 8.49499989
4.57499981 6.55299997 8.48200035
4.56699991 6.55000019 8.47200012
4.55100012 6.54300022 8.46700001
4.61899996 6.57600021 8.34500027
4.61299992 6.57399988 8.33500004
4.59899998 6.56899977 8.32900047
4.60099983 6.57000017 8.31400013
4.54099989 6.51800013 8.70699978
4.54400015 6.51900005 8.69099998
4.54899979 6.52199984 8.67399979
4.69099998 6.58500004 8.56200027
4.69099998 6.58500004 8.54800034
4.65100002 6.57000017 8.50199986
4.63999987 6.56599998 8.49499989
4.63600016 6.56500006 8.48299980
4.57999992 6.54099989 8.50100040
4.57999992 6.54199982 8.48700047
4.57800007 6.54199982 8.47500038
4.57499981 6.54099989 8.46300030
4.56300020 6.53599977 8.45600033
4.61000013 6.55999994 8.33199978
4.61100006 6.56099987 8.31799984
4.52500010 6.49300003 8.80099964
4.53299999 6.49700022 8.78299999
4.53100014 6.49599981 8.77000046
4.53499985 6.49900007 8.75300026
4.53800011 6.50099993 8.73700047
4.71199989 6.57700014 8.60499954
4.71999979 6.58099985 8.58699989
4.70699978 6.57600021 8.57999992
4.70200014 6.57499981 8.56900024
4.64599991 6.55399990 8.49100018
4.63899994 6.55200005 8.48099995
4.62699986 6.54699993 8.47399998
4.58799982 6.53100014 8.48299980
4.58799982 6.53200006 8.46899986
4.58599997 6.53100014 8.45600033
4.57499981 6.52699995 8.44900036
4.60699987 6.54300022 8.37500000
4.60200024 6.54099989 8.36400032
4.61299992 6.54699993 8.32999992
4.61899996 6.55000019 8.31200027
4.53000021 6.48600006 8.81900024
4.52699995 6.48500013 8.80599976
4.53000021 6.48699999 8.79100037
4.53200006 6.48899984 8.77499962
4.73400021 6.57800007 8.61200047
4.73199987 6.57800007 8.59899998
4.72599983 6.57600021 8.58899975
4.71999979 6.57399988 8.57900047
4.63199997 6.54199982 8.47700024
4.62500000 6.53900003 8.46800041
4.60699987 6.53200006 8.46399975
4.59399986 6.52699995 8.45699978
4.58799982 6.52400017 8.44799995
4.57700014 6.51999998 8.43999958
4.61000013 6.53700018 8.36499977
4.62699986 6.54500008 8.32800007
4.61600018 6.54099989 8.31999969
4.61399984 6.52099991 8.46700001
4.61299992 6.52099991 8.45300007
4.60400009 6.51800013 8.44499969
4.59600019 6.51499987 8.43500042
4.61700010 6.52600002 8.35400009
4.62599993 6.53100014 8.33500004
4.62200022 6.53000021 8.32299995
4.60900021 6.50500011 8.46500015
4.61199999 6.50699997 8.44999981
4.60799980 6.50600004 8.43799973
4.60099983 6.50400019 8.42800045
4.63299990 6.51999998 8.34099960
4.63299990 6.52099991 8.32699966
4.61299992 6.49900007 8.45300007
4.61199999 6.49900007 8.43900013
4.60799980 6.49800014 8.42700005
4.59999990 6.49499989 8.41899967
4.63600016 6.51300001 8.32900047
4.61800003 6.48799992 8.45600033
4.61999989 6.48999977 8.44099998
4.62200022 6.49100018 8.42599964
4.61600018 6.48899984 8.41499996
4.60799980 6.48600006 8.40600014
4.64699984 6.50600004 8.32800007
4.63899994 6.50299978 8.31900024
4.62300014 6.47800016 8.44799995
4.62799978 6.48099995 8.43099976
4.62799978 6.48099995 8.41699982
4.62300014 6.47900009 8.40600014
4.64699984 6.49300003 8.32299995
4.63199997 6.47399998 8.42800045
4.63199997 6.47499990 8.41300011
4.62799978 6.47399998 8.40299988
4.61700010 6.46899986 8.39500046
4.65000010 6.48600006 8.31999969
4.64499998 6.46700001 8.41499996
4.64300013 6.46600008 8.40299988
4.63700008 6.46400023 8.39200020
4.66599989 6.47900009 8.31999969
4.65700006 6.47599983 8.31099987
4.49800014 6.38500023 8.59700012
4.53200006 6.40000010 8.56299973
4.54099989 6.40500021 8.54399967
4.54400015 6.40700006 8.52799988
4.55399990 6.41200018 8.50899982
4.55700016 6.41300011 8.49300003
4.55800009 6.41400003 8.47799969
4.64900017 6.45499992 8.41100025
4.65199995 6.45699978 8.39599991
4.64799976 6.45599985 8.38399982
4.63600016 6.45100021 8.37699986
4.67000008 6.46799994 8.31599998
4.66099977 6.46400023 8.30799961
4.55700016 6.40199995 8.58199978
4.55399990 6.40100002 8.56999969
4.54699993 6.39900017 8.56000042
4.54500008 6.39799976 8.54699993
4.54500008 6.39900017 8.53299999
4.55600023 6.40399981 8.51299953
4.56500006 6.40899992 8.47999954
4.65799999 6.45200014 8.39799976
4.65500021 6.45100021 8.38599968
4.64799976 6.44799995 8.37600040
4.66599989 6.45800018 8.31099987
4.66400003 6.44000006 8.40200043
4.66599989 6.44199991 8.38599968
4.66499996 6.44199991 8.37300014
4.65399981 6.43800020 8.36499977
4.67399979 6.44799995 8.31299973
4.67399979 6.43100023 8.39000034
4.67600012 6.43200016 8.37500000
4.67399979 6.43200016 8.36299992
4.66300011 6.42799997 8.35499954
4.67899990 6.43599987 8.30500031
4.67700005 6.42500019 8.39299965
4.68100023 6.42700005 8.37699986
4.68100023 6.42700005 8.36400032
4.67399979 6.42500019 8.35400009
4.68400002 6.43100023 8.30599976
4.68800020 6.41599989 8.38199997
4.69099998 6.41800022 8.36699963
4.69000006 6.41800022 8.35400009
4.68200016 6.41499996 8.34500027
4.69099998 6.42000008 8.31200027
4.68599987 6.41800022 8.30099964
4.69700003 6.40600014 8.36499977
4.69799995 6.40700006 8.35000038
4.69600010 6.40700006 8.33800030
4.68499994 6.40299988 8.32999992
4.69399977 6.40700006 8.31200027
4.69299984 6.40700006 8.29899979
4.70100021 6.40100002 8.36900043
4.70400000 6.40299988 8.35400009
4.70400000 6.40399981 8.34000015
4.69899988 6.40199995 8.32900047
4.69299984 6.40000010 8.31900024
4.69500017 6.40100002 8.30399990
4.71299982 6.39300013 8.34799957
4.71299982 6.39400005 8.33399963
4.71199989 6.39400005 8.31999969
4.70300007 6.38999987 8.31200027
4.53900003 6.32000017 8.33699989
4.46400023 6.28800011 8.35099983
4.71700001 6.38199997 8.35400009
4.71999979 6.38299990 8.33899975
4.72100019 6.38399982 8.32499981
4.71600008 6.38299990 8.31299973
4.70599985 6.37799978 8.30599976
4.55000019 6.31099987 8.32600021
4.46999979 6.27600002 8.34399986
4.76399994 6.38999987 8.46800041
4.72399998 6.37799978 8.33899975
4.72599983 6.38000011 8.32400036
4.72399998 6.37900019 8.31200027
4.71400023 6.37500000 8.30399990
4.55800009 6.30800009 8.32400036
4.47399998 6.27099991 8.34399986
4.76700020 6.37699986 8.46000004
4.76399994 6.37599993 8.44699955
4.73299980 6.36800003 8.32699966
4.73500013 6.36899996 8.31200027
4.73099995 6.36800003 8.30099964
4.71700001 6.36199999 8.29500008
4.48299980 6.26000023 8.34599972
4.48299980 6.26100016 8.33199978
4.79500008 6.37099981 8.57800007
4.79199982 6.36999989 8.56599998
4.79300022 6.37200022 8.55099964
4.76599979 6.36399984 8.44299984
4.74200010 6.35799980 8.31799984
4.74200010 6.35900021 8.30500031
4.73699999 6.35699987 8.29399967
4.72300005 6.35200024 8.28800011
4.58599997 6.29199982 8.31099987
4.49200010 6.25099993 8.33699989
4.80000019 6.36600018 8.56499958
4.79300022 6.36399984 8.55500031
4.78700018 6.36199999 8.54500008
4.77899981 6.35900021 8.53499985
4.78100014 6.36000013 8.52000046
4.76599979 6.35699987 8.44600010
4.76800013 6.35799980 8.43099976
4.74300003 6.35200024 8.32100010
4.74800014 6.35500002 8.30500031
4.74200010 6.35300016 8.29399967
4.73500013 6.34899998 8.28400040
4.62599993 6.30200005 8.31900024
4.59800005 6.28999996 8.30799961
4.56799984 6.27699995 8.31099987
4.46899986 6.23299980 8.35400009
4.78100014 6.34700012 8.50100040
4.77899981 6.34600019 8.48799992
4.77699995 6.34600019 8.47599983
4.77299976 6.34499979 8.46399975
4.77299976 6.34600019 8.42300034
4.76999998 6.34600019 8.40999985
4.75500011 6.34299994 8.30900002
4.75500011 6.34299994 8.29500008
4.75199986 6.34299994 8.28299999
4.74399996 6.34000015 8.27400017
4.63999987 6.29400015 8.30599976
4.60900021 6.28100014 8.29599953
4.53000021 6.24599981 8.31299973
4.76999998 6.32399988 8.61699963
4.77400017 6.33099985 8.46100044
4.77500010 6.33300018 8.44600010
4.77600002 6.33400011 8.43200016
4.77299976 6.33300018 8.42000008
4.77500010 6.33400011 8.40499973
4.77400017 6.33400011 8.39200020
4.77199984 6.33400011 8.37899971
4.77199984 6.33500004 8.36499977
4.77199984 6.33500004 8.35200024
4.76800013 6.33400011 8.34000015
4.76300001 6.33199978 8.32900047
4.76000023 6.33099985 8.31700039
4.76399994 6.33400011 8.30099964
4.76300001 6.33400011 8.28800011
4.76000023 6.33300018 8.27600002
4.75199986 6.32999992 8.26700020
4.61700010 6.26900005 8.32999992
4.65299988 6.28599977 8.28199959
4.58699989 6.25799990 8.29199982
4.54500008 6.23899984 8.30300045
4.77400017 6.31799984 8.61800003
4.76900005 6.31599998 8.60700035
4.73400021 6.30200005 8.58600044
4.78000021 6.32600021 8.47500038
4.77899981 6.32700014 8.46100044
4.77500010 6.32499981 8.44999981
4.77500010 6.32600021 8.43599987
4.77699995 6.32800007 8.42099953
4.77699995 6.32800007 8.40699959
4.77799988 6.32900000 8.39299965
4.77500010 6.32800007 8.38099957
4.77299976 6.32800007 8.35400009
4.76800013 6.32700014 8.34300041
4.76900005 6.32700014 8.32900047
4.76399994 6.32600021 8.31900024
4.76100016 6.32499981 8.30599976
4.76599979 6.32800007 8.28899956
4.76700020 6.32900000 8.27600002
4.76000023 6.32600021 8.26599979
4.74900007 6.32200003 8.25800037
4.66699982 6.28499985 8.27799988
4.65299988 6.28000021 8.27200031
4.53700018 6.22800016 8.31000042
4.77299976 6.30399990 8.59899998
4.76000023 6.30100012 8.55200005
4.78900003 6.31500006 8.52000046
4.78800011 6.31500006 8.50699997
4.78299999 6.31300020 8.49499989
4.76200008 6.30399990 8.49400043
4.87799978 6.36199999 8.30200005
4.76399994 6.31300020 8.29899979
4.77299976 6.31699991 8.28100014
4.77299976 6.31699991 8.26700020
4.76800013 6.31599998 8.25599957
4.75400019 6.30999994 8.25000000
4.68900013 6.28100014 8.26000023
4.78200006 6.29400015 8.61999989
4.78299999 6.29500008 8.60499954
4.78499985 6.29699993 8.58899975
4.78700018 6.29799986 8.57499981
4.78900003 6.29899979 8.55900002
4.78499985 6.29799986 8.54800034
4.78900003 6.30000019 8.53199959
4.78999996 6.30200005 8.51700020
4.91099977 6.35799980 8.40400028
4.93300009 6.36899996 8.37699986
4.92500019 6.36600018 8.36800003
4.92100000 6.36399984 8.35700035
4.91200018 6.36199999 8.32100010
4.88299990 6.35099983 8.28299999
4.77799988 6.30600023 8.27600002
4.78000021 6.30700016 8.26000023
4.77799988 6.30700016 8.24800014
4.76499987 6.30100012 8.24199963
4.71199989 6.27799988 8.24499989
4.78800011 6.28700018 8.67300034
4.78700018 6.28800011 8.65999985
4.78800011 6.28800011 8.64500046
4.78399992 6.28700018 8.63399982
4.78100014 6.28599977 8.62100029
4.78599977 6.28900003 8.60400009
4.78900003 6.29099989 8.58800030
4.79099989 6.29300022 8.57299995
4.79300022 6.29400015 8.55799961
4.79300022 6.29400015 8.54500008
4.79400015 6.29600000 8.52999973
4.93300009 6.36000013 8.41899967
4.92899990 6.35900021 8.40900040
4.91599989 6.35400009 8.40200043
4.92100000 6.35699987 8.35799980
4.93200016 6.36299992 8.33800030
4.93200016 6.36299992 8.32400036
4.90600014 6.35300016 8.31200027
4.88199997 6.34399986 8.27099991
4.78200006 6.30000019 8.27400017
4.78499985 6.30200005 8.25899982
4.78200006 6.30100012 8.24699974
4.77299976 6.29799986 8.23799992
4.71899986 6.27400017 8.24100018
4.79199982 6.27600002 8.66499996
4.77699995 6.27099991 8.63199997
4.93599987 6.34899998 8.39799976
4.92899990 6.34600019 8.38899994
4.92799997 6.34600019 8.37600040
4.92299986 6.34499979 8.36499977
4.91699982 6.34200001 8.35400009
4.91599989 6.34200001 8.34200001
4.92000008 6.34399986 8.32600021
4.92000008 6.34499979 8.31200027
4.91200018 6.34200001 8.30300045
4.90399981 6.33900023 8.29399967
4.89699984 6.33599997 8.28400040
4.89200020 6.33500004 8.27400017
4.88399982 6.33099985 8.26500034
4.78900003 6.28999996 8.26500034
4.79199982 6.29199982 8.24899960
4.78999996 6.29199982 8.23700047
4.92899990 6.33199978 8.41300011
4.93200016 6.33400011 8.39700031
4.92799997 6.33599997 8.31700039
4.86499977 6.30700016 8.32800007
4.89499998 6.32200003 8.29599953
4.88999987 6.32000017 8.28499985
4.88100004 6.31599998 8.27700043
4.88899994 6.32100010 8.25800037
4.79699993 6.28100014 8.25699997
4.79899979 6.28200006 8.24100018
4.85699987 6.29699993 8.32499981
4.86000013 6.29899979 8.30900002
4.89400005 6.31500006 8.27600002
4.88199997 6.30999994 8.26900005
4.88700008 6.31300020 8.25199986
4.80000019 6.27500010 8.24800014
4.89499998 6.30299997 8.25800037
4.89099979 6.30100012 8.24800014
4.87699986 6.29500008 8.24199963
4.80999994 6.26599979 8.23900032
4.88199997 6.28299999 8.23700047
4.81400013 6.25400019 8.23499966
4.75500011 6.12200022 8.26099968
4.80000019 6.13399982 8.25100040
4.77699995 6.12500000 8.23700047
4.81400013 6.12699986 8.25100040
4.82399988 6.13199997 8.23200035
4.80499983 6.10799980 8.28100014
4.80700016 6.10900021 8.26500034
4.80100012 6.09800005 8.28699970
4.80999994 6.10300016 8.26700020
4.78700018 6.07700014 8.31599998
4.78700018 6.07700014 8.30300045
4.03000021 7.21700001 9.26700020
4.03100014 7.20400000 9.25899982
4.05600023 7.19899988 9.26900005
4.04400015 7.19600010 9.24699974
4.05800009 7.19199991 9.25699997
4.04099989 7.18599987 9.25300026
4.15600014 7.23500013 9.03699970
4.15299988 7.23400021 9.02499962
4.06300020 7.18100023 9.24600029
4.03599977 7.17100000 9.24800014
4.16200018 7.22399998 9.02600002
4.15899992 7.22399998 9.01399994
4.15399981 7.22300005 9.00199986
4.07800007 7.17199993 9.23200035
4.03100014 7.15500021 9.24699974
4.00899982 7.14799976 9.24499989
4.16900015 7.21299982 9.01799965
4.16499996 7.21199989 9.00599957
4.15700006 7.21000004 8.99600029
4.07000017 7.16200018 9.22299957
4.01399994 7.14200020 9.24199963
4.01100016 7.14200020 9.22900009
4.16599989 7.20499992 9.00500011
4.16200018 7.20400000 8.99300003
4.38199997 7.26100016 9.19299984
4.38100004 7.26100016 9.18000031
4.10799980 7.16099977 9.27600002
4.11000013 7.16300011 9.26000023
4.10699987 7.16200018 9.24800014
4.10300016 7.16099977 9.23600006
4.09700012 7.15899992 9.22399998
4.03599977 7.13800001 9.23299980
4.02799988 7.13500023 9.22299957
4.17100000 7.19399977 8.99100018
3.96000004 7.12099981 8.95899963
3.95400000 7.11999989 8.94699955
4.07700014 7.13700008 9.26299953
4.08300018 7.13999987 9.24400043
4.09899998 7.14699984 9.21899986
4.09399986 7.14599991 9.19400024
4.04899979 7.13000011 9.20600033
4.04699993 7.12900019 9.19299984
4.18300009 7.18499994 8.99499989
4.17500019 7.18300009 8.98600006
3.96700001 7.11100006 8.95100021
3.96000004 7.10799980 8.93999958
3.94199991 7.10200024 8.93700027
4.36999989 7.23699999 9.18500042
4.37900019 7.23999977 9.16600037
4.08300018 7.13199997 9.26099968
4.08400011 7.13299990 9.24600029
4.07600021 7.13000011 9.23700047
4.04199982 7.11800003 9.24300003
4.10200024 7.14099979 9.19099998
4.09499979 7.13899994 9.18200016
4.06199980 7.12799978 9.18700027
4.24300003 7.19600010 9.06200027
4.24200010 7.19600010 9.04899979
4.23999977 7.19600010 9.03499985
4.23799992 7.19600010 9.02099991
4.18300009 7.17799997 8.99699974
4.17600012 7.17500019 8.98799992
3.96799994 7.10400009 8.93799973
3.95799994 7.09999990 8.93000031
4.00000000 7.11700010 8.89099979
4.37400007 7.22399998 9.20600033
4.36800003 7.22200012 9.19499969
4.37699986 7.22700024 9.15999985
4.37200022 7.22499990 9.14900017
4.08599997 7.11999989 9.26799965
4.09399986 7.12300014 9.24800014
4.09800005 7.12500000 9.23099995
4.10200024 7.12699986 9.21399975
4.10599995 7.12900019 9.19699955
4.10799980 7.13100004 9.18099976
4.10300016 7.12900019 9.17000008
4.08099985 7.12200022 9.16800022
4.23799992 7.18300009 9.01500034
4.18699980 7.16599989 8.98900032
4.07000017 7.12900019 8.88599968
3.97900009 7.09499979 8.92599964
4.00899982 7.10699987 8.89299965
4.37699986 7.21199989 9.18799973
4.37699986 7.21299982 9.17300034
4.37200022 7.21099997 9.16300011
4.37200022 7.21199989 9.14799976
4.10300016 7.11299992 9.22700024
4.11199999 7.11700010 9.20699978
4.11899996 7.11999989 9.18799973
4.12400007 7.12300014 9.17099953
4.12200022 7.12300014 9.15699959
4.11299992 7.11999989 9.14799976
4.24300003 7.17100000 9.01200008
4.23299980 7.16800022 9.00300026
4.19500017 7.15600014 8.98299980
3.95199990 7.07000017 8.96899986
3.97900009 7.08099985 8.93900013
4.07499981 7.11700010 8.86800003
4.02299976 7.09800005 8.88399982
4.37900019 7.20599985 9.16399956
4.37300014 7.20499992 9.15299988
4.36899996 7.20400000 9.14099979
4.11199999 7.10900021 9.21300030
4.11899996 7.11299992 9.19400024
4.13100004 7.11800003 9.17199993
4.13299990 7.11899996 9.15600014
4.13199997 7.11899996 9.14200020
4.12900019 7.11899996 9.12899971
4.24300003 7.16400003 9.00199986
4.23500013 7.16200018 8.99300003
4.20599985 7.15199995 8.98099995
4.19399977 7.14799976 8.97399998
3.98699999 7.07600021 8.93999958
4.06799984 7.10699987 8.87699986
4.02099991 7.09000015 8.87699986
4.37099981 7.19099998 9.13199997
4.36600018 7.19000006 9.11999989
4.13199997 7.10400009 9.17800045
4.13999987 7.10799980 9.15799999
4.14599991 7.11100006 9.13899994
4.14799976 7.11199999 9.12399960
4.14300013 7.11100006 9.11200047
4.23400021 7.14799976 8.98499966
4.21199989 7.13999987 8.98400021
4.20800018 7.13899994 8.97200012
4.01999998 7.07399988 8.91100025
4.08699989 7.10099983 8.85799980
4.03499985 7.08099985 8.87399960
4.37400007 7.17999983 9.12399960
4.27400017 7.14499998 9.09899998
4.15000010 7.09899998 9.14500046
4.15600014 7.10200024 9.12800026
4.15700006 7.10200024 9.11200047
4.15399981 7.10200024 9.10000038
4.23799992 7.13700008 8.97700024
4.22100019 7.13100004 8.97200012
4.04699993 7.07100010 8.91800022
4.05299997 7.07399988 8.88599968
4.04699993 7.07200003 8.87500000
4.37200022 7.17100000 9.11400032
4.36299992 7.16900015 9.10499954
4.35500002 7.16599989 9.09599972
4.28299999 7.13999987 9.09700012
4.27799988 7.13899994 9.08600044
4.15600014 7.09299994 9.13099957
4.16200018 7.09600019 9.11299992
4.16400003 7.09800005 9.09700012
4.16099977 7.09700012 9.08500004
4.24300003 7.13100004 8.97700024
4.22599983 7.12500000 8.97299957
4.08099985 7.07700014 8.85900021
4.36700010 7.15600014 9.10799980
4.35699987 7.15299988 9.10000038
4.28599977 7.12799978 9.08500004
4.28200006 7.12699986 9.07400036
4.16800022 7.08500004 9.11400032
4.17700005 7.08900023 9.09399986
4.17600012 7.08900023 9.08100033
4.17100000 7.08799982 9.06900024
4.17399979 7.09100008 9.02400017
4.23799992 7.11600018 8.97099972
4.35599995 7.13999987 9.09599972
4.34700012 7.13700008 9.08600044
4.28599977 7.11499977 9.06700039
4.18100023 7.07700014 9.08699989
4.18300009 7.07800007 9.07199955
4.17999983 7.07800007 9.05900002
4.17700005 7.07700014 9.04599953
4.17500019 7.07800007 9.01900005
4.24300003 7.10400009 8.96300030
4.35099983 7.13100004 9.08699989
4.28900003 7.11000013 9.05399990
4.18400002 7.07100010 9.08800030
4.18599987 7.07200003 9.07299995
4.18900013 7.07399988 9.05700016
4.18599987 7.07299995 9.04399967
4.18300009 7.07200003 9.03199959
4.17999983 7.07200003 9.01799965
4.24599981 7.09800005 8.96399975
4.36999989 7.12300014 9.14200020
4.36499977 7.12099981 9.13099957
4.36299992 7.12099981 9.11800003
4.35900021 7.11999989 9.10499954
4.34999990 7.11700010 9.09700012
4.34700012 7.11600018 9.08399963
4.33900023 7.11399984 9.07400036
4.32700014 7.11000013 9.06799984
4.32100010 7.10799980 9.05700016
4.31199980 7.10500002 9.04800034
4.29500008 7.09899998 9.04399967
4.28900003 7.09800005 9.03299999
4.22499990 7.07499981 9.01500034
4.20800018 7.06899977 9.01000023
4.24800014 7.08599997 8.95800018
4.22800016 7.07900000 8.95499992
4.39499998 7.11600018 9.19499969
4.39499998 7.11700010 9.18000031
4.38899994 7.11499977 9.17000008
4.05499983 7.06599998 8.91699982
4.05000019 7.06400013 8.90600014
4.04400015 7.06300020 8.89400005
4.08099985 7.06300020 8.87800026
4.08799982 7.06599998 8.85900021
4.11100006 7.06099987 8.85599995
4.11700010 7.05600023 8.85499954
4.19399977 7.06199980 9.06200027
4.19799995 7.06400013 9.04500008
4.19299984 7.06400013 9.00500011
4.12599993 7.04600000 8.85799980
4.10300016 7.03700018 8.85799980
4.21500015 7.05700016 9.04599953
4.20599985 7.05399990 9.03699970
4.20699978 7.05499983 9.02200031
4.22399998 7.06199980 8.99699974
4.23500013 7.06799984 8.94699955
4.12900019 7.03200006 8.88199997
4.13000011 7.03299999 8.86600018
4.12300014 7.03100014 8.85700035
4.21000004 7.04799986 9.03800011
4.21099997 7.04899979 9.02299976
4.21099997 7.05000019 9.00800037
4.21999979 7.05399990 8.98799992
4.25699997 7.06899977 8.95199966
4.24399996 7.06400013 8.94499969
4.19099998 7.04699993 8.90600014
4.13700008 7.02899981 8.86600018
4.13199997 7.02699995 8.85499954
4.26800013 7.04799986 9.22500038
4.28200006 7.05900002 9.07100010
4.28000021 7.05900002 9.05799961
4.28999996 7.06500006 9.00800037
4.28399992 7.06300020 8.99800014
4.21999979 7.03900003 9.00800037
4.21899986 7.03999996 8.99400043
4.21600008 7.03900003 8.98200035
4.25600004 7.05499983 8.94299984
4.19399977 7.03399992 8.89400005
4.15199995 7.01999998 8.86200047
4.26999998 7.03599977 9.22000027
4.27500010 7.03800011 9.20199966
4.27899981 7.04099989 9.18599987
4.27799988 7.04400015 9.08500004
4.27799988 7.04500008 9.06999969
4.28000021 7.04600000 9.05500031
4.28000021 7.04600000 9.04100037
4.27799988 7.04699993 9.02700043
4.27899981 7.04699993 9.01299953
4.28100014 7.04899979 8.99699974
4.27899981 7.04799986 8.98299980
4.24700022 7.03599977 8.98799992
4.22900009 7.03000021 8.98600006
4.22900009 7.03100014 8.97099972
4.26200008 7.04400015 8.93599987
4.19799995 7.02299976 8.88899994
4.19399977 7.02199984 8.87699986
4.16800022 7.01300001 8.86400032
4.15999985 7.01000023 8.85499954
4.28200006 7.03399992 9.18900013
4.28100014 7.03399992 9.17500019
4.28399992 7.03599977 9.15799999
4.28000021 7.03499985 9.14700031
4.27899981 7.03399992 9.13300037
4.27799988 7.03499985 9.11900043
4.27799988 7.03499985 9.10499954
4.27600002 7.03499985 9.09099960
4.27799988 7.03700018 9.07499981
4.27899981 7.03800011 9.06099987
4.28499985 7.04199982 9.00000000
4.28200006 7.04099989 8.98700047
4.27699995 7.03999996 8.97500038
4.26399994 7.03599977 8.96899986
4.23299980 7.02400017 8.97399998
4.26399994 7.03700018 8.94099998
4.19899988 7.01499987 8.88000011
4.19799995 7.01599979 8.86600018
4.17000008 7.00600004 8.85400009
4.28000021 7.01900005 9.19699955
4.28000021 7.01900005 9.18200016
4.28800011 7.02400017 9.13500023
4.28399992 7.02299976 9.12199974
4.27600002 7.02699995 8.95400047
4.27600002 7.02699995 8.93999958
4.23799992 7.01300001 8.94900036
4.21099997 7.00600004 8.86499977
4.20200014 7.00400019 8.85499954
4.18699980 6.99800014 8.85099983
4.08199978 6.95900011 8.88300037
4.27299976 7.00199986 9.22700024
4.27899981 7.00400019 9.20899963
4.30000019 7.01499987 9.15299988
4.29400015 7.01300001 9.14200020
4.15100002 6.96400023 9.04100037
4.26999998 7.01100016 8.95499992
4.28000021 7.01599979 8.93500042
4.27400017 7.01399994 8.92399979
4.23600006 7.00000000 8.93200016
4.20599985 6.99200010 8.85000038
4.19500017 6.98799992 8.84200001
4.05800009 6.93499994 8.90900040
4.31899977 7.01200008 9.19099998
4.32000017 7.01300001 9.17500019
4.30800009 7.00899982 9.16800022
4.30000019 7.00699997 9.15799999
4.30100012 7.00799990 9.14299965
4.14499998 6.95400000 9.05099964
4.17100000 6.96500015 9.02000046
4.25699997 6.99900007 8.95400047
4.28000021 7.00899982 8.92599964
4.26700020 7.00400019 8.91899967
4.23699999 6.99300003 8.92300034
4.21500015 6.98799992 8.85000038
4.20800018 6.98500013 8.84000015
4.32900000 7.00099993 9.19400024
4.29799986 6.99100018 9.16899967
4.16599989 6.94799995 9.03199959
4.17100000 6.94999981 9.01500034
4.25699997 6.98500013 8.94900036
4.27699995 6.99300003 8.92199993
4.27899981 6.99399996 8.90699959
4.25299978 6.98500013 8.90799999
4.22100019 6.97599983 8.84200001
4.21600008 6.97399998 8.83100033
4.13999987 6.92199993 9.12800026
4.13999987 6.92299986 9.11400032
4.14400005 6.92500019 9.09700012
4.15500021 6.92899990 9.07600021
4.16099977 6.93200016 9.05700016
4.16300011 6.93400002 9.04199982
4.26399994 6.97499990 8.93799973
4.27099991 6.97900009 8.91899967
4.28100014 6.98299980 8.89900017
4.26800013 6.97800016 8.89299965
4.22800016 6.96600008 8.83100033
4.22499990 6.96600008 8.81799984
4.14900017 6.91900015 9.10799980
4.14599991 6.91900015 9.09500027
4.15899992 6.92399979 9.07299995
4.16499996 6.92700005 9.05399990
4.14599991 6.92000008 9.05200005
4.27500010 6.97399998 8.91600037
4.28200006 6.97700024 8.89799976
4.27500010 6.97499990 8.88799953
4.26200008 6.96999979 8.88099957
4.23199987 6.96099997 8.82800007
4.23000002 6.96099997 8.81499958
4.14099979 6.90199995 9.11600018
4.14300013 6.90299988 9.10000038
4.28000021 6.96199989 8.90200043
4.28200006 6.96299982 8.88700008
4.27799988 6.96199989 8.87500000
4.26700020 6.95800018 8.86699963
4.24900007 6.95300007 8.82100010
4.24300003 6.95200014 8.81000042
4.11399984 6.87599993 9.15600014
4.12400007 6.88100004 9.13599968
4.13800001 6.88700008 9.11299992
4.28299999 6.94899988 8.89599991
4.28599977 6.95100021 8.88000011
4.28200006 6.94999981 8.86800003
4.27299976 6.94700003 8.85900021
4.25400019 6.94199991 8.81299973
4.11899996 6.87099981 9.15699959
4.12400007 6.87300014 9.13899994
4.28700018 6.94399977 8.89599991
4.28800011 6.94500017 8.88099957
4.28800011 6.94500017 8.86699963
4.28100014 6.94299984 8.85599995
4.26300001 6.93800020 8.81000042
4.25899982 6.93699980 8.79800034
4.27600002 6.94799995 8.68900013
4.27500010 6.94799995 8.67599964
4.29600000 6.93499994 8.86900043
4.29500008 6.93499994 8.85499954
4.28800011 6.93300009 8.84500027
4.26800013 6.92700005 8.79899979
4.28399992 6.93800020 8.67700005
4.27400017 6.93400002 8.66899967
4.23999977 6.89300013 9.03100014
4.23799992 6.89300013 9.01700020
4.23699999 6.89300013 9.00399971
4.29899979 6.92199993 8.86600018
4.30200005 6.92399979 8.85000038
4.30000019 6.92399979 8.83699989
4.29099989 6.92000008 8.82800007
4.27699995 6.91699982 8.79399967
4.27799988 6.92199993 8.66600037
4.26900005 6.91900015 8.65699959
4.24599981 6.88899994 9.00300026
4.24399996 6.88899994 8.98999977
4.24300003 6.88899994 8.97599983
4.25000000 6.89300013 8.95699978
4.25699997 6.89599991 8.93900013
4.26499987 6.90000010 8.92000008
4.26800013 6.90100002 8.90400028
4.27600002 6.90500021 8.88500023
4.30399990 6.91699982 8.85400009
4.30700016 6.91800022 8.83800030
4.30200005 6.91699982 8.82699966
4.29500008 6.91499996 8.81599998
4.28499985 6.91200018 8.79399967
4.27400017 6.91300011 8.65900040
4.26700020 6.91099977 8.64900017
4.23099995 6.86999989 9.00500011
4.24399996 6.87599993 8.98200035
4.25500011 6.88000011 8.96199989
4.26100016 6.88299990 8.94400024
4.26599979 6.88600016 8.92599964
4.27899981 6.89300013 8.89000034
4.29099989 6.89799976 8.86800003
4.30999994 6.90600014 8.84300041
4.31400013 6.90799999 8.82600021
4.30900002 6.90700006 8.81400013
4.30000019 6.90399981 8.80500031
4.29400015 6.90199995 8.79500008
4.29099989 6.90100002 8.78299999
4.27299976 6.90000010 8.65100002
4.26700020 6.89799976 8.64099979
4.23099995 6.85500002 9.01500034
4.31799984 6.89499998 8.83399963
4.32100010 6.89699984 8.81799984
4.31899977 6.89699984 8.80500031
4.31599998 6.89599991 8.79300022
4.30700016 6.89300013 8.78400040
4.29799986 6.88999987 8.77499962
4.27600002 6.88700008 8.64599991
4.26800013 6.88399982 8.63700008
4.23099995 6.84700012 9.03400040
4.23500013 6.84899998 9.01700020
4.32200003 6.88899994 8.82199955
4.32200003 6.88999987 8.80700016
4.32200003 6.89099979 8.79300022
4.31799984 6.88999987 8.78100014
4.30700016 6.88600016 8.77299976
4.22800016 6.86000013 8.67800045
4.27400017 6.87900019 8.63700008
4.23400021 6.83300018 9.09500027
4.23199987 6.83300018 9.08199978
4.22599983 6.83099985 9.07100010
4.22499990 6.83099985 9.05700016
4.23400021 6.83500004 9.03699970
4.22700024 6.83300018 9.02700043
4.32600021 6.87900019 8.81000042
4.33099985 6.88100004 8.79300022
4.32800007 6.88100004 8.78100014
4.31799984 6.87799978 8.77200031
4.24900007 6.85599995 8.65699959
4.28000021 6.86899996 8.62500000
4.23400021 6.81899977 9.09099960
4.22100019 6.81500006 9.06999969
4.22700024 6.81899977 9.03699970
4.33900023 6.86999989 8.79800034
4.33699989 6.86999989 8.78499985
4.33799982 6.87099981 8.77000046
4.32700014 6.86700010 8.76299953
4.27799988 6.85400009 8.63599968
4.21500015 6.80499983 9.09300041
4.21799994 6.80600023 9.07699966
4.22700024 6.81099987 9.04199982
4.34100008 6.86399984 8.78800011
4.34299994 6.86600018 8.77200031
4.33900023 6.86499977 8.76000023
4.33099985 6.86199999 8.75100040
4.20599985 6.81699991 8.69699955
4.28700018 6.84999990 8.63500023
4.28599977 6.84999990 8.62199974
4.23000002 6.79899979 9.05000019
4.34899998 6.85500002 8.77799988
4.34999990 6.85599995 8.76299953
4.34499979 6.85400009 8.75199986
4.34200001 6.85300016 8.73900032
4.24100018 6.81799984 8.67099953
4.29099989 6.83799982 8.62800026
4.22800016 6.78399992 9.06200027
4.36999989 6.84800005 8.78999996
4.36600018 6.84700012 8.77799988
4.35599995 6.84399986 8.77000046
4.35900021 6.84600019 8.75399971
4.35799980 6.84600019 8.74100018
4.34800005 6.84200001 8.73200035
4.31599998 6.83400011 8.63799953
4.29699993 6.82700014 8.63500023
4.36100006 6.83799982 8.77000046
4.36100006 6.83900023 8.75599957
4.36000013 6.83900023 8.74199963
4.35599995 6.83699989 8.73099995
4.35200024 6.83599997 8.71899986
4.30700016 6.82299995 8.63199997
4.29899979 6.82000017 8.62199974
4.36700010 6.82800007 8.74800014
4.36999989 6.82999992 8.73099995
4.36600018 6.82900000 8.72000027
4.35599995 6.82600021 8.71100044
4.28999996 6.80299997 8.65100002
4.30900002 6.81099987 8.62600040
4.37500000 6.81699991 8.73700047
4.37500000 6.81799984 8.72299957
4.39400005 6.82600021 8.69799995
4.36199999 6.81400013 8.70199966
4.31500006 6.79899979 8.63099957
4.37599993 6.80999994 8.73999977
4.38100004 6.81199980 8.72399998
4.38199997 6.81300020 8.70899963
4.37699986 6.81199980 8.69699955
4.31699991 6.79099989 8.63300037
4.38399982 6.80000019 8.72999954
4.38800001 6.80200005 8.71399975
4.38999987 6.80399990 8.69799995
4.38100004 6.80100012 8.68900013
4.33699989 6.78599977 8.63000011
4.32900000 6.78299999 8.62100029
4.39400005 6.79099989 8.71000004
4.40100002 6.79400015 8.69200039
4.39599991 6.79300022 8.68099976
4.38600016 6.78999996 8.67199993
4.34499979 6.77500010 8.62600040
4.34100008 6.77400017 8.61499977
4.40199995 6.78599977 8.70800018
4.40199995 6.78700018 8.69299984
4.39900017 6.78599977 8.68200016
4.39300013 6.78399992 8.67099953
4.34399986 6.76700020 8.61499977
4.42399979 6.77199984 8.95800018
4.40600014 6.77600002 8.69799995
4.40999985 6.77799988 8.68200016
4.40399981 6.77600002 8.67199993
