10.37800026 6.89699984 6.02799988
10.37800026 6.89799976 6.01700020
10.37800026 6.89900017 6.00600004
10.37699986 6.90299988 5.99499989
10.37699986 6.90399981 5.98400021
10.37699986 6.90500021 5.97300005
10.37699986 6.90700006 5.96199989
10.37600040 6.90899992 5.95200014
10.37500000 6.91300011 5.94199991
10.37500000 6.91499996 5.93100023
10.37199974 6.93100023 5.88000011
10.36900043 6.94500017 5.85099983
10.36800003 6.95100021 5.84100008
10.36699963 6.95400000 5.81899977
10.37199974 6.93400002 5.79899979
10.37600040 6.87400007 6.17100000
10.37600040 6.87500000 6.15999985
10.37600040 6.87599993 6.14799976
10.37600040 6.87699986 6.13700008
10.37500000 6.87900019 6.12599993
10.37600040 6.87699986 6.11299992
10.37500000 6.87900019 6.10200024
10.37500000 6.88299990 6.09299994
10.37399960 6.88700008 6.08300018
10.37399960 6.88800001 6.07200003
10.37300014 6.89099979 6.06099987
10.37199974 6.89400005 6.05100012
10.37199974 6.89400005 6.03900003
10.37199974 6.89599991 6.02799988
10.37199974 6.89699984 6.01700020
10.37199974 6.90000010 6.00600004
10.37199974 6.89900017 5.99399996
10.36999989 6.90500021 5.98500013
10.36999989 6.90600014 5.97399998
10.36999989 6.90899992 5.96299982
10.36900043 6.91300011 5.95300007
10.36900043 6.91300011 5.94199991
10.40699959 6.73000002 5.83900023
10.36600018 6.92799997 5.90100002
10.36499977 6.93200016 5.88000011
10.36299992 6.94399977 5.87300014
10.39099979 6.80800009 5.76900005
10.36400032 6.87400007 6.17700005
10.36400032 6.87099981 6.16499996
10.36400032 6.87300014 6.15299988
10.36999989 6.84200001 6.12699986
10.36800003 6.85200024 6.12099981
10.37100029 6.84100008 6.10400009
10.36400032 6.87500000 6.10699987
10.36299992 6.87799978 6.09700012
10.36200047 6.88199997 6.08699989
10.36100006 6.88700008 6.07700014
10.36100006 6.88899994 6.06599998
10.36100006 6.88999987 6.05499983
10.35999966 6.89499998 6.04600000
10.35999966 6.89699984 6.03499985
10.35900021 6.90000010 6.02400017
10.35799980 6.90299988 6.01399994
10.35700035 6.90700006 6.00400019
10.35700035 6.90999985 5.99300003
10.35700035 6.91200018 5.98199987
10.35700035 6.90799999 5.96899986
10.35200024 6.93599987 5.93499994
10.35200024 6.93499994 5.92199993
10.35499954 6.92100000 5.81199980
10.35299969 6.87200022 6.17500019
10.35299969 6.87099981 6.16300011
10.35299969 6.87400007 6.15199995
10.35299969 6.87300014 6.13999987
10.35599995 6.85699987 6.12099981
10.35099983 6.88000011 6.11999989
10.35099983 6.88399982 6.11000013
10.35099983 6.88399982 6.09800005
10.35000038 6.88800001 6.08799982
10.34899998 6.89099979 6.07700014
10.34899998 6.89400005 6.06699991
10.34799957 6.89900017 6.05700016
10.34799957 6.89900017 6.03399992
10.34599972 6.90600014 6.02500010
10.34599972 6.90899992 6.01499987
10.34500027 6.91300011 6.00500011
10.38899994 6.69999981 5.88800001
10.38899994 6.70200014 5.87699986
10.34200001 6.92600012 5.95200014
10.35000038 6.88899994 5.81899977
10.34599972 6.90999985 5.81699991
10.34399986 6.92000008 5.80900002
10.34599972 6.87599993 6.18100023
10.34599972 6.87400007 6.16800022
10.34599972 6.87599993 6.15700006
10.34599972 6.87699986 6.14599991
10.35000038 6.85900021 6.11399984
10.34300041 6.89099979 6.11700010
10.34300041 6.89200020 6.10500002
10.34200001 6.89400005 6.09399986
10.34200001 6.89799976 6.08400011
10.34099960 6.90199995 6.07499981
10.38899994 6.67199993 5.92600012
10.38799953 6.67799997 5.91699982
10.38700008 6.68100023 5.90700006
10.38500023 6.68900013 5.89799976
10.38399982 6.69500017 5.88899994
10.38399982 6.69600010 5.87900019
10.34700012 6.87599993 5.82900000
10.34500027 6.88600016 5.82200003
10.34200001 6.89799976 5.81599998
10.34000015 6.90799999 5.80800009
10.33399963 6.86899996 6.18499994
10.33300018 6.87200022 6.17399979
10.33199978 6.87900019 6.16499996
10.34899998 6.79699993 6.11700010
10.34799957 6.80200005 6.10699987
10.38199997 6.64200020 5.95300007
10.29300022 7.06699991 6.11899996
10.37500000 6.67600012 5.92299986
10.37399960 6.68100023 5.91300011
10.37399960 6.68300009 5.90199995
10.33600044 6.86600018 5.83099985
10.32699966 6.90999985 5.81599998
10.32299995 6.86299992 6.17899990
10.33699989 6.79799986 6.13800001
10.33699989 6.79899979 6.11499977
10.31099987 6.92299986 5.95900011
10.31400013 6.91200018 5.81400013
10.31799984 6.85799980 6.20100021
10.31799984 6.86100006 6.19099998
10.33100033 6.79899979 6.13899994
10.33100033 6.79699993 6.12599993
10.33199978 6.79400015 6.11299992
10.35999966 6.66400003 5.94999981
10.26700020 7.10300016 6.11000013
10.26299953 7.12400007 6.10699987
10.26099968 7.13600016 6.09999990
10.30799961 6.91300011 5.96700001
10.30399990 6.93400002 5.83500004
10.30799961 6.91200018 5.81400013
10.32100010 6.78599977 6.12799978
10.34899998 6.65299988 5.97399998
10.34899998 6.65600014 5.96400023
10.26000023 7.07700014 6.12799978
10.29399967 6.91499996 5.97399998
10.29599953 6.90999985 5.82000017
10.33899975 6.64699984 5.99300003
10.33899975 6.64699984 5.98199987
10.27400017 6.95400000 6.05999994
10.28400040 6.90899992 5.99300003
10.28299999 6.91200018 5.98199987
10.28400040 6.90899992 5.81699991
10.33399963 6.64200020 6.00600004
10.33399963 6.64400005 5.99499989
10.26900005 6.94999981 6.06199980
10.27799988 6.90899992 5.99599981
10.27799988 6.91099977 5.98500013
10.32299995 6.63600016 6.03299999
10.32299995 6.63700008 6.02199984
10.26700020 6.90100002 6.00000000
10.31299973 6.62799978 6.06300020
10.31200027 6.63100004 6.05299997
10.31200027 6.63299990 6.04199982
10.24800014 6.92999983 6.03399992
10.25500011 6.90199995 5.99900007
10.25699997 6.89200020 5.82999992
10.25699997 6.88999987 5.80700016
10.30700016 6.62900019 6.07800007
10.30599976 6.63299990 6.06799984
10.30700016 6.63000011 6.05499983
10.24199963 6.93300009 6.02699995
10.25000000 6.89499998 5.99800014
10.25300026 6.88299990 5.82900000
10.25100040 6.89200020 5.80999994
10.29399967 6.63500023 6.11000013
10.29399967 6.63399982 6.09700012
10.29599953 6.62799978 6.08400011
10.23999977 6.88800001 6.00199986
10.27999973 6.64099979 6.15700006
10.27900028 6.64699984 6.14900017
10.27999973 6.64400005 6.13500023
10.28199959 6.63299990 6.11899996
10.22900009 6.88000011 6.00799990
10.22399998 6.90799999 5.80900002
10.21100044 6.97399998 5.35300016
10.22299957 6.87599993 6.00799990
10.21700001 6.90799999 5.81199980
10.21500015 6.91800022 5.80399990
10.21399975 6.86499977 6.01000023
10.21000004 6.88000011 6.00500011
10.20800018 6.89300013 5.80000019
10.19999981 6.93100023 5.79300022
10.20300007 6.85799980 6.01599979
10.19600010 6.89300013 5.80999994
10.19699955 6.85200024 6.01599979
10.19099998 6.88500023 5.80800009
10.18099976 6.81799984 6.04699993
10.17899990 6.82900000 6.02799988
10.17700005 6.83699989 6.01900005
10.17500019 6.81699991 6.05600023
10.17500019 6.81899977 6.04600000
10.17300034 6.82600021 6.03700018
10.17199993 6.83199978 6.02699995
10.17099953 6.83599997 6.01700020
10.16899967 6.79099989 6.07100010
10.16800022 6.79600000 6.06199980
10.15999985 6.77600002 6.07100010
10.14900017 6.82900000 6.01300001
10.15400028 6.77500010 6.07100010
10.14200020 6.82700014 6.01200008
10.13300037 6.81699991 6.01599979
10.13199997 6.82399988 6.00699997
10.12199974 6.81099987 6.01100016
10.11900043 6.82600021 6.00600004
10.10999966 6.82999992 6.00699997
10.09899998 6.83099985 6.01300001
10.09799957 6.83500004 6.00299978
10.08500004 6.83900023 6.00099993
10.08300018 6.84700012 5.99200010
10.07800007 6.86700010 5.97800016
10.07600021 6.84999990 5.99499989
10.07400036 6.85699987 5.98699999
10.07199955 6.86399984 5.97800016
10.34599972 6.59899998 6.77400017
10.01599979 6.73199987 6.51900005
10.01200008 6.72300005 6.51700020
10.54800034 6.95699978 6.47700024
10.54599953 6.96600008 6.46999979
10.53800011 6.96899986 6.46999979
10.52900028 6.95699978 6.46799994
10.52099991 6.93300009 6.47800016
10.52099991 6.93800020 6.46799994
10.51500034 6.92899990 6.47700024
10.51399994 6.93599987 6.46899986
10.50399971 6.93400002 6.47599983
10.49100018 6.93200016 6.47200012
10.48499966 6.93200016 6.47399998
10.47399998 6.92799997 6.47599983
10.46399975 6.98099995 6.48899984
10.45699978 7.01599979 6.48199987
10.45499992 7.02600002 6.47499990
10.46300030 6.92500019 6.46999979
10.45100021 6.98400021 6.48600006
10.44699955 7.00699997 6.48500013
10.44400024 7.01900005 6.47800016
10.44299984 7.02400017 6.46899986
10.44799995 6.96199989 6.49900007
10.45600033 6.92100000 6.46700001
10.44699955 6.91300011 6.45800018
10.43700027 6.89900017 6.46099997
10.43599987 6.90399981 6.45100021
10.39400005 7.06799984 7.22599983
10.39299965 7.07100010 7.21600008
10.43099976 6.89900017 6.46500015
10.43000031 6.90199995 6.45499992
10.38199997 7.06599998 7.22100019
10.41899967 6.89799976 6.46000004
10.41899967 6.89799976 6.44700003
10.42300034 6.88199997 6.33199978
10.36999989 7.06199980 7.22599983
10.36999989 7.06099987 7.21299982
10.40699959 6.89699984 6.45400000
10.40600014 6.89799976 6.44299984
10.41300011 6.87099981 6.32299995
10.40499973 6.90799999 6.31599998
10.36499977 7.05600023 7.22300005
10.40100002 6.89499998 6.45400000
10.39999962 6.90100002 6.44399977
10.40799999 6.86299992 6.33099985
10.40699959 6.86600018 6.32000017
10.40499973 6.87599993 6.31300020
10.40200043 6.88999987 6.30800009
10.38000011 6.92299986 7.17199993
10.35099983 7.06400013 7.22100019
10.38899994 6.89699984 6.44799995
10.38599968 6.90799999 6.44199991
10.38599968 6.91099977 6.43100023
10.38599968 6.90899992 6.41800022
10.38599968 6.90899992 6.40600014
10.38599968 6.91099977 6.39499998
10.38700008 6.90600014 6.38000011
10.38700008 6.90700006 6.36899996
10.38700008 6.90500021 6.34399986
10.38799953 6.90199995 6.33099985
10.38899994 6.89599991 6.31699991
10.39099979 6.88700008 6.30000019
10.39000034 6.89200020 6.28999996
10.39000034 6.89300013 6.27899981
10.39099979 6.88700008 6.26499987
10.37500000 6.90600014 6.48500013
10.37500000 6.90399981 6.47100019
10.37600040 6.90100002 6.45699978
10.37699986 6.89599991 6.44299984
10.37699986 6.89699984 6.43200016
10.37699986 6.89799976 6.42000008
10.37699986 6.89699984 6.40799999
10.37699986 6.89699984 6.39599991
10.37899971 6.88600016 6.37900019
10.37899971 6.88999987 6.34499979
10.37899971 6.88999987 6.33300018
10.38199997 6.87699986 6.30299997
10.38599968 6.85400009 6.28100014
10.38099957 6.88299990 6.28100014
10.38099957 6.88299990 6.26999998
10.38099957 6.88000011 6.25699997
10.38399982 6.86800003 6.22800016
10.38099957 6.88000011 6.20900011
10.36800003 6.90700006 6.52099991
10.36900043 6.90399981 6.50799990
10.36900043 6.90199995 6.49399996
10.36999989 6.89799976 6.48000002
10.37100029 6.89699984 6.46799994
10.37100029 6.89200020 6.45300007
10.37199974 6.89099979 6.44099998
10.37100029 6.89300013 6.42999983
10.37199974 6.89200020 6.41699982
10.37199974 6.89200020 6.40500021
10.37199974 6.89300013 6.39400005
10.37300014 6.88800001 6.36700010
10.37300014 6.88500023 6.34200001
10.37300014 6.88700008 6.33099985
10.37399960 6.88199997 6.30600023
10.37500000 6.88000011 6.29199982
10.38099957 6.85099983 6.26700020
10.37800026 6.86299992 6.26100016
10.37800026 6.86299992 6.24900007
10.37600040 6.87400007 6.23000002
10.37500000 6.87699986 6.21999979
10.37600040 6.87699986 6.20800018
10.36100006 6.86600018 7.15700006
10.36100006 6.86800003 7.14499998
10.37100029 6.82100010 6.97200012
10.35599995 6.90399981 6.57399988
10.35700035 6.90199995 6.56099987
10.35700035 6.90000010 6.54799986
10.35799980 6.89599991 6.53399992
10.35799980 6.89400005 6.52099991
10.35900021 6.89300013 6.50799990
10.35900021 6.89200020 6.49599981
10.35900021 6.89099979 6.48400021
10.35900021 6.89099979 6.47100019
10.35900021 6.89099979 6.45900011
10.35999966 6.88899994 6.44700003
10.35900021 6.89099979 6.43599987
10.35999966 6.88999987 6.42299986
10.35999966 6.88999987 6.41099977
10.35999966 6.88999987 6.39900017
10.35999966 6.89099979 6.37500000
10.36100006 6.88399982 6.36100006
10.36200047 6.88100004 6.32299995
10.36100006 6.88600016 6.31300020
10.36100006 6.88199997 6.30000019
10.37300014 6.82499981 6.26200008
10.36299992 6.87699986 6.27400017
10.36499977 6.86800003 6.23400021
10.32100010 7.00600004 7.19099998
10.33899975 6.92399979 7.03599977
10.35999966 6.82000017 6.96999979
10.39999962 6.63399982 6.80200005
10.34599972 6.90000010 6.59499979
10.34599972 6.89799976 6.58099985
10.34700012 6.89300013 6.56699991
10.34700012 6.89400005 6.55600023
10.34799957 6.89099979 6.54199982
10.34799957 6.88899994 6.52899981
10.34899998 6.88600016 6.51599979
10.34899998 6.88600016 6.50299978
10.34799957 6.88899994 6.49300003
10.34799957 6.88999987 6.48099995
10.34700012 6.89300013 6.47100019
10.34799957 6.89200020 6.45800018
10.34700012 6.89400005 6.44700003
10.34700012 6.89599991 6.43599987
10.34700012 6.89699984 6.42399979
10.34700012 6.89400005 6.41099977
10.34799957 6.89300013 6.36299992
10.34799957 6.89200020 6.33900023
10.35000038 6.88199997 6.30999994
10.36400032 6.81699991 6.26800013
10.34899998 6.88700008 6.28900003
10.35000038 6.88600016 6.27699995
10.34899998 6.88700008 6.26499987
10.33600044 6.90799999 7.03200006
10.35499954 6.81899977 6.97300005
10.39700031 6.61600018 6.79600000
10.39299965 6.63399982 6.79300022
10.34500027 6.86899996 6.75400019
10.33899975 6.90199995 6.63600016
10.34000015 6.89699984 6.62200022
10.34000015 6.89599991 6.60900021
10.34000015 6.89599991 6.59700012
10.34099960 6.89400005 6.58300018
10.34099960 6.89099979 6.57000017
10.34099960 6.88999987 6.55700016
10.34200001 6.88899994 6.54500008
10.34200001 6.88899994 6.53299999
10.34300041 6.88399982 6.51800013
10.34300041 6.88500023 6.50699997
10.34200001 6.88800001 6.49599981
10.34099960 6.89200020 6.48600006
10.34099960 6.89599991 6.47599983
10.34099960 6.89400005 6.46400023
10.34000015 6.89799976 6.45300007
10.34000015 6.90000010 6.44199991
10.34000015 6.90199995 6.43100023
10.33899975 6.90500021 6.42000008
10.34000015 6.89900017 6.40600014
10.34000015 6.90100002 6.38299990
10.35999966 6.80800009 6.26800013
10.34200001 6.89099979 6.29400015
10.34300041 6.88899994 6.28100014
10.34300041 6.88999987 6.26999998
10.34300041 6.88999987 6.25799990
10.34300041 6.88700008 6.24499989
10.34500027 6.88100004 6.23000002
10.30300045 7.00000000 7.22499990
10.30500031 6.98699999 7.16800022
10.33699989 6.84000015 7.00400019
10.33699989 6.84000015 6.99200010
10.38099957 6.63299990 6.78800011
10.37800026 6.64499998 6.78200006
10.34700012 6.79400015 6.77199984
10.33399963 6.86000013 6.75699997
10.32600021 6.89900017 6.66599989
10.32699966 6.89499998 6.65199995
10.32800007 6.89200020 6.63800001
10.32800007 6.88999987 6.62500000
10.32800007 6.88999987 6.61399984
10.32800007 6.88999987 6.60099983
10.32800007 6.88999987 6.58900023
10.32800007 6.89099979 6.57800007
10.32800007 6.88899994 6.56500006
10.32800007 6.89200020 6.55399990
10.32800007 6.89099979 6.54199982
10.33100033 6.87599993 6.52199984
10.33100033 6.87799978 6.51100016
10.32900047 6.88899994 6.50400019
10.32699966 6.89699984 6.49599981
10.32600021 6.90000010 6.48500013
10.32699966 6.90000010 6.47300005
10.33399963 6.79400015 6.98999977
10.32999992 6.81599998 6.98899984
10.31900024 6.86899996 7.00400019
10.31799984 6.87300014 6.99399996
10.29699993 6.97399998 7.00799990
10.28299999 7.04099989 7.01700020
10.36699963 6.64300013 6.77799988
10.36499977 6.65199995 6.77099991
10.33800030 6.78000021 6.77400017
10.33800030 6.78299999 6.76399994
10.33600044 6.79099989 6.75600004
10.32800007 6.82800007 6.76200008
10.32400036 6.84700012 6.76000023
10.31299973 6.90299988 6.71400023
10.31400013 6.89799976 6.69999981
10.31499958 6.89400005 6.68499994
10.31599998 6.89200020 6.67199993
10.31599998 6.89099979 6.65999985
10.31599998 6.88800001 6.64599991
10.31599998 6.88899994 6.63399982
10.31700039 6.88700008 6.62099981
10.31599998 6.88999987 6.61000013
10.31599998 6.88999987 6.59800005
10.31599998 6.88999987 6.58599997
10.31599998 6.89099979 6.57499981
10.31499958 6.89400005 6.56400013
10.32299995 6.85699987 6.53499985
10.32199955 6.86299992 6.52500010
10.31999969 6.87200022 6.51700020
10.33800030 6.79300022 6.27600002
10.32400036 6.86199999 6.20200014
10.32100010 6.83099985 6.98500013
10.31200027 6.87200022 6.99300003
10.29199982 6.96899986 7.00600004
10.27799988 7.03700018 7.01599979
10.35900021 6.65199995 6.77199984
10.35900021 6.65500021 6.76100016
10.33399963 6.77500010 6.77199984
10.33100033 6.78599977 6.76599979
10.32900047 6.79699993 6.75899982
10.32400036 6.82299995 6.76000023
10.30799961 6.89900017 6.73699999
10.30799961 6.89900017 6.72499990
10.30900002 6.89499998 6.71000004
10.30900002 6.89200020 6.69700003
10.31000042 6.89099979 6.68400002
10.31000042 6.88999987 6.67100000
10.31000042 6.88899994 6.65899992
10.31000042 6.89200020 6.64799976
10.31000042 6.89099979 6.63600016
10.31000042 6.88999987 6.62300014
10.31000042 6.89200020 6.61199999
10.30900002 6.89400005 6.60099983
10.31000042 6.89300013 6.58799982
10.31000042 6.89300013 6.57600021
10.31900024 6.85099983 6.54400015
10.31799984 6.85400009 6.53299999
10.31599998 6.86199999 6.52500010
10.31999969 6.85200024 6.21000004
10.27900028 6.96400023 7.14799976
10.27900028 6.96199989 7.13500023
10.30900002 6.82700014 6.98999977
10.30599976 6.84100008 6.98500013
10.30300045 6.85200024 6.97800016
10.28199959 6.95499992 7.00600004
10.26500034 7.03299999 7.02099991
10.34500027 6.65899992 6.78200006
10.34500027 6.65799999 6.76900005
10.34399986 6.66200018 6.75899982
10.34099960 6.67999983 6.74399996
10.34000015 6.68300009 6.73299980
10.33699989 6.69500017 6.72800016
10.31999969 6.78100014 6.74599981
10.31900024 6.78100014 6.73400021
10.29899979 6.87900019 6.77099991
10.29399967 6.90100002 6.76900005
10.29599953 6.89400005 6.75299978
10.29599953 6.89200020 6.73999977
10.29699993 6.89099979 6.72700024
10.29699993 6.88700008 6.71299982
10.29800034 6.88600016 6.70100021
10.29699993 6.88899994 6.69000006
10.29699993 6.89200020 6.67899990
10.29699993 6.89099979 6.66699982
10.29599953 6.89400005 6.65600014
10.29699993 6.89200020 6.64300013
10.29699993 6.89099979 6.63100004
10.30700016 6.84299994 6.59499979
10.31000042 6.82900000 6.57600021
10.31000042 6.83099985 6.56500006
10.30799961 6.83900023 6.55700016
10.31900024 6.79199982 6.28299999
10.30799961 6.84600019 6.22599983
10.30700016 6.84899998 6.21500015
10.30599976 6.85599995 6.20599985
10.27000046 6.95200014 7.13999987
10.26900005 6.95699978 7.13000011
10.28999996 6.85900021 6.99200010
10.28999996 6.86299992 6.98199987
10.28800011 6.86999989 6.97399998
10.27200031 6.94500017 6.99900007
10.27099991 6.94899988 6.98899984
10.25399971 7.03299999 7.01900005
10.34300041 6.61399984 6.76900005
10.32999992 6.67600012 6.73999977
10.32800007 6.68599987 6.73299980
10.32499981 6.70200014 6.72900009
10.32299995 6.71000004 6.72100019
10.32199955 6.71700001 6.71199989
10.31000042 6.77199984 6.70300007
10.30799961 6.78200006 6.64799976
10.30500031 6.79899979 6.64400005
10.30500031 6.79600000 6.63100004
10.30399990 6.80200005 6.62099981
10.30300045 6.80399990 6.61100006
10.30200005 6.80999994 6.60099983
10.30099964 6.81599998 6.59299994
10.30000019 6.82000017 6.58199978
10.29899979 6.82800007 6.57399988
10.30599976 6.79699993 6.28399992
10.29699993 6.84399986 6.23400021
10.29599953 6.84600019 6.22399998
10.26399994 6.95200014 7.13100004
10.28299999 6.86600018 6.98699999
10.28299999 6.86999989 6.97700024
10.28100014 6.87699986 6.96799994
10.26599979 6.94700003 6.99100018
10.24800014 7.03100014 7.02199984
10.32999992 6.65000010 6.79099989
10.33399963 6.63000011 6.76900005
10.27600002 6.90299988 6.83400011
10.31200027 6.73600006 6.70100021
10.31000042 6.74399996 6.69299984
10.30799961 6.75299978 6.68499994
10.30700016 6.76300001 6.67799997
10.30599976 6.76599979 6.66800022
10.30500031 6.77099991 6.65799999
10.30300045 6.77899981 6.65000010
10.30099964 6.78700018 6.64200020
10.30099964 6.79099989 6.63199997
10.30000019 6.79400015 6.62099981
10.29800034 6.80299997 6.61299992
10.29500008 6.81599998 6.59600019
10.29300022 6.82800007 6.58900023
10.30099964 6.79300022 6.28599977
10.29899979 6.80299997 6.27899981
10.29199982 6.84000015 6.23699999
10.29100037 6.84399986 6.22700024
10.25399971 6.94199991 7.12099981
10.27700043 6.83699989 7.01700020
10.27600002 6.84399986 7.00799990
10.26900005 6.87400007 6.96199989
10.26700020 6.88700008 6.95599985
10.26299953 6.90100002 6.95100021
10.26500034 6.89300013 6.93400002
10.31400013 6.66499996 6.80600023
10.26200008 6.90899992 6.89300013
10.26299953 6.90600014 6.87900019
10.26399994 6.90199995 6.86499977
10.26500034 6.89900017 6.85099983
10.26599979 6.88999987 6.83500004
10.29800034 6.74300003 6.72399998
10.27000046 6.87500000 6.75400019
10.26700020 6.88999987 6.74900007
10.26599979 6.89400005 6.73799992
10.26599979 6.89400005 6.72700024
10.26399994 6.90199995 6.71799994
10.24800014 6.98199987 6.69600010
10.26299953 6.90999985 6.61199999
10.28100014 6.83400011 6.25299978
10.27999973 6.83900023 6.24300003
10.24300003 6.93699980 7.11600018
10.26799965 6.82000017 7.03100014
10.26700020 6.82499981 7.02099991
10.24199963 6.94299984 6.98299980
10.25199986 6.89699984 6.93400002
10.25199986 6.89799976 6.92299986
10.25100040 6.90100002 6.91200018
10.25100040 6.90199995 6.90000010
10.25199986 6.89799976 6.88600016
10.25300026 6.89499998 6.87200022
10.25399971 6.88700008 6.85599995
10.25599957 6.88100004 6.80399990
10.25500011 6.88700008 6.79400015
10.25500011 6.88700008 6.78200006
10.25399971 6.89099979 6.77199984
10.25300026 6.89499998 6.76200008
10.25199986 6.90199995 6.75299978
10.24199963 6.94999981 6.67899990
10.25000000 6.90999985 6.62300014
10.25100040 6.90799999 6.61000013
10.26900005 6.82999992 6.26100016
10.26900005 6.82999992 6.24900007
10.23900032 6.92899990 7.10300016
10.26200008 6.82200003 7.03399992
10.24100018 6.92000008 6.97399998
10.24300003 6.91099977 6.95699978
10.24400043 6.90700006 6.94299984
10.24600029 6.89499998 6.92399979
10.24600029 6.89799976 6.91300011
10.24600029 6.89699984 6.90100002
10.24699974 6.89499998 6.88700008
10.24800014 6.89099979 6.87200022
10.25199986 6.87200022 6.82600021
10.24899960 6.88399982 6.82000017
10.24899960 6.88600016 6.80900002
10.24899960 6.88700008 6.79699993
10.24800014 6.89099979 6.78599977
10.24699974 6.89599991 6.77699995
10.24600029 6.90199995 6.76800013
10.24699974 6.89900017 6.75400019
10.23999977 6.93300009 6.67299986
10.24499989 6.90999985 6.62599993
10.28499985 6.72499990 6.47599983
10.26399994 6.82499981 6.26100016
10.23200035 6.90899992 7.01300001
10.23299980 6.90199995 6.95900011
10.23400021 6.89900017 6.94500017
10.23499966 6.89699984 6.93200016
10.23499966 6.89300013 6.91800022
10.23499966 6.89400005 6.90600014
10.27499962 6.71199989 6.77699995
10.24100018 6.86899996 6.84399986
10.23600006 6.88999987 6.84200001
10.23700047 6.88999987 6.82999992
10.23600006 6.89200020 6.81899977
10.23499966 6.89699984 6.80900002
10.23499966 6.90000010 6.79799986
10.23400021 6.90100002 6.78599977
10.23099995 6.91900015 6.66099977
10.23200035 6.91599989 6.64799976
10.23299980 6.90899992 6.63199997
10.27400017 6.72200012 6.48099995
10.25399971 6.81799984 6.28800011
10.25399971 6.82000017 6.27799988
10.20699978 6.96099997 7.22499990
10.22299957 6.88899994 7.14900017
10.22200012 6.89400005 7.13899994
10.22099972 6.90199995 7.03200006
10.22000027 6.90500021 7.02099991
10.22099972 6.90000010 7.00600004
10.22399998 6.88800001 6.98699999
10.22099972 6.90000010 6.95599985
10.22099972 6.90000010 6.94399977
10.22200012 6.89699984 6.92999983
10.22200012 6.89699984 6.91800022
10.26500034 6.69999981 6.78100014
10.22200012 6.89900017 6.86899996
10.22200012 6.90199995 6.85900021
10.22299957 6.89599991 6.84299994
10.21700001 6.92500019 6.84499979
10.22000027 6.91099977 6.82600021
10.21899986 6.91599989 6.81599998
10.22099972 6.90700006 6.64099979
10.26599979 6.70100021 6.50500011
10.26399994 6.71299982 6.49900007
10.26099968 6.72599983 6.49300003
10.26000023 6.72900009 6.48199987
10.24400043 6.80600023 6.30499983
10.24300003 6.81099987 6.29500008
10.24300003 6.81099987 6.28299999
10.20100021 6.95400000 7.22399998
10.20100021 6.95800018 7.21299982
10.21800041 6.87900019 7.15899992
10.21599960 6.88700008 7.15000010
10.21000004 6.91800022 7.11700010
10.21599960 6.89400005 7.00500011
10.21399975 6.90000010 6.99599981
10.21399975 6.90100002 6.94600010
10.25800037 6.70100021 6.80800009
10.26000023 6.69399977 6.78000021
10.21000004 6.92299986 6.84700012
10.21000004 6.92100000 6.83300018
10.21100044 6.91900015 6.82000017
10.21300030 6.90999985 6.64499998
10.26500034 6.67500019 6.50600004
10.26200008 6.69000006 6.50199986
10.25800037 6.70699978 6.49800014
10.25599957 6.71700001 6.48999977
10.25199986 6.73299980 6.48699999
10.23700047 6.80700016 6.30700016
10.23600006 6.81199980 6.29699993
10.19699955 6.92100000 7.21299982
10.19799995 6.91699982 7.19899988
10.20699978 6.87599993 7.16499996
10.19799995 6.91699982 7.17399979
10.19699955 6.91900015 7.16300011
10.19799995 6.91599989 7.14799976
10.19900036 6.91300011 7.13399982
10.19900036 6.91099977 7.12099981
10.19999981 6.90700006 7.10599995
10.20100021 6.90399981 7.09200001
10.20199966 6.90100002 7.07800007
10.17099953 7.04300022 7.01399994
10.25100040 6.67999983 6.81699991
10.19799995 6.92199993 6.82900000
10.20600033 6.89099979 6.65500021
10.20400047 6.90100002 6.64799976
10.19900036 6.92100000 6.64499998
10.23799992 6.74399996 6.48699999
10.22599983 6.80200005 6.33500004
10.22599983 6.80399990 6.32499981
10.22700024 6.79799986 6.30999994
10.18700027 6.90899992 7.21700001
10.18700027 6.90999985 7.20499992
10.18799973 6.90500021 7.19000006
10.18700027 6.90799999 7.17899990
10.18700027 6.90999985 7.16800022
10.18700027 6.90999985 7.15500021
10.18700027 6.90899992 7.14200020
10.18799973 6.90700006 7.12900019
10.18799973 6.90399981 7.11499977
10.18900013 6.90299988 7.10200024
10.18900013 6.90199995 7.08900023
10.18900013 6.90199995 7.07600021
10.18900013 6.90299988 7.06400013
10.18799973 6.90600014 7.05399990
10.18700027 6.91599989 6.83599997
10.19499969 6.88199997 6.65999985
10.18700027 6.92199993 6.65600014
10.18599987 6.92600012 6.64499998
10.22500038 6.74800014 6.48699999
10.22299957 6.75600004 6.47800016
10.21500015 6.79699993 6.34299994
10.21500015 6.79799986 6.33099985
10.21800041 6.78499985 6.31400013
10.18099976 6.90399981 7.21700001
10.18000031 6.90700006 7.20599985
10.18500042 6.88500023 7.18200016
10.18099976 6.90600014 7.17999983
10.18099976 6.90600014 7.16800022
10.18099976 6.90600014 7.15500021
10.18099976 6.90500021 7.14200020
10.18099976 6.90399981 7.12900019
10.18099976 6.90399981 7.11700010
10.18099976 6.90500021 7.10500002
10.18200016 6.90399981 7.09200001
10.18099976 6.90799999 7.08199978
10.18099976 6.90799999 7.06899977
10.18000031 6.91099977 7.05900002
10.18000031 6.91099977 7.04600000
10.18999958 6.86899996 7.01200008
10.18799973 6.88199997 6.66200018
10.17899990 6.92500019 6.65899992
10.17800045 6.92899990 6.64799976
10.21700001 6.75099993 6.50199986
10.21599960 6.75899982 6.49399996
10.21599960 6.76100016 6.48299980
10.20600033 6.80499983 6.48000002
10.20699978 6.80100012 6.46600008
10.20899963 6.79400015 6.35500002
10.21300030 6.77699995 6.31199980
10.17000008 6.90199995 7.22100019
10.17000008 6.90199995 7.20900011
10.18299961 6.84299994 7.16499996
10.17000008 6.90399981 7.18499994
10.16899967 6.90700006 7.17399979
10.17000008 6.90500021 7.15999985
10.16899967 6.90700006 7.14900017
10.17000008 6.90399981 7.13500023
10.17000008 6.90500021 7.12300014
10.16899967 6.90999985 7.11199999
10.16800022 6.91499996 7.10300016
10.16800022 6.91599989 7.09100008
10.18099976 6.85400009 7.02099991
10.18000031 6.86000013 7.01200008
10.17000008 6.91099977 6.82800007
10.17800045 6.87599993 6.66400003
10.16699982 6.92700005 6.67700005
10.16499996 6.93599987 6.67000008
10.16499996 6.93499994 6.65600014
10.20400047 6.76399994 6.47700024
10.20100021 6.77600002 6.47100019
10.19799995 6.78999996 6.46600008
10.19900036 6.78900003 6.38100004
10.19799995 6.78999996 6.37099981
10.15699959 6.90600014 7.21799994
10.15799999 6.90100002 7.20200014
10.15600014 6.90999985 7.19500017
10.15600014 6.91099977 7.18300009
10.15600014 6.91300011 7.17100000
10.15600014 6.90999985 7.15700006
10.15600014 6.90999985 7.14499998
10.15900040 6.90000010 7.12699986
10.15799999 6.90500021 7.11700010
10.16899967 6.85400009 7.01599979
10.15699959 6.91400003 6.83699989
10.16699982 6.87300014 6.65700006
10.15200043 6.93900013 6.66499996
10.15100002 6.94299984 6.65500021
10.18999958 6.76999998 6.46299982
10.18799973 6.78100014 6.45599985
10.18700027 6.78299999 6.44500017
10.18700027 6.78299999 6.43300009
10.18799973 6.78299999 6.42100000
10.18700027 6.78499985 6.40999985
10.18700027 6.78499985 6.39799976
10.18599987 6.78900003 6.38800001
10.18700027 6.78700018 6.37500000
10.14999962 6.90899992 7.21700001
10.15600014 6.88600016 7.12900019
10.15299988 6.89699984 7.12300014
10.16399956 6.85099983 7.02400017
10.16399956 6.85200024 7.01200008
10.15100002 6.91499996 6.83500004
10.14299965 6.95300007 6.65700006
10.18200016 6.78000021 6.44099998
10.18200016 6.78200006 6.42999983
10.18099976 6.78299999 6.41900015
10.18099976 6.78299999 6.40700006
10.18099976 6.78599977 6.39599991
10.14700031 6.87300014 7.12699986
10.15299988 6.84399986 7.01300001
10.13700008 6.92100000 6.82999992
10.14799976 6.87500000 6.65999985
10.12899971 6.96099997 6.66499996
10.12699986 6.96899986 6.65700006
10.12500000 6.97900009 6.65000010
10.17000008 6.78100014 6.42199993
10.16899967 6.78399992 6.41099977
10.13700008 6.86100006 7.12699986
10.14400005 6.83400011 7.01399994
10.12399960 6.92500019 6.82600021
10.13599968 6.87400007 6.65399981
10.11499977 6.96899986 6.66400003
10.11200047 6.98500013 6.64699984
10.15900040 6.77699995 6.42600012
10.15900040 6.77699995 6.41499996
10.13300037 6.84600019 7.13299990
10.13099957 6.85500002 7.12500000
10.13700008 6.83199978 7.01399994
10.13599968 6.83900023 7.00500011
10.11600018 6.93100023 6.82999992
10.13000011 6.87200022 6.65399981
10.12899971 6.87799978 6.64499998
10.10900021 6.96799994 6.66400003
10.15200043 6.77699995 6.43900013
10.15200043 6.77799988 6.42799997
10.12699986 6.82499981 7.14300013
10.12399960 6.83500004 7.13600016
10.12800026 6.82299995 7.01800013
10.12699986 6.82900000 7.00799990
10.10499954 6.92899990 6.83699989
10.11699963 6.88000011 6.64099979
10.09599972 6.97300005 6.67399979
10.09700012 6.96799994 6.65999985
10.14200020 6.76999998 6.44399977
10.12300014 6.78499985 7.17000008
10.11999989 6.79799986 7.16400003
10.11800003 6.80600023 7.15600014
10.11699963 6.81099987 7.14699984
10.11400032 6.82399988 7.14099979
10.11400032 6.82700014 7.01800013
10.08600044 6.95900011 6.65399981
10.13399982 6.75000000 6.49200010
10.13399982 6.75099993 6.48099995
10.13199997 6.75799990 6.47200012
10.13099957 6.76300001 6.46299982
10.13000011 6.76800013 6.45300007
10.11999989 6.76300001 7.17100000
10.11600018 6.78399992 7.16900015
10.11299992 6.79600000 7.16300011
10.11100006 6.80700016 7.15600014
10.10999966 6.81099987 7.14599991
10.10900021 6.81500006 7.13500023
10.07999992 6.95200014 6.66200018
10.07900047 6.95800018 6.65299988
10.12699986 6.75000000 6.46799994
10.12399960 6.75899982 6.46099997
10.12199974 6.76999998 6.45400000
10.11299992 6.74800014 7.18100023
10.10999966 6.76100016 7.17399979
10.10000038 6.80700016 7.13700008
10.09799957 6.81500006 7.00400019
10.06799984 6.95900011 6.65899992
10.10200024 6.74100018 7.17299986
10.08899975 6.79899979 7.12900019
10.08399963 6.79400015 7.12699986
10.08500004 6.78999996 7.11299992
10.09300041 6.76499987 6.47700024
10.09200001 6.76800013 6.46700001
10.08100033 6.75600004 7.12599993
10.07699966 6.77099991 7.12200022
10.07400036 6.78700018 7.10500002
10.07100010 6.74800014 7.13299990
10.06299973 6.78100014 7.10099983
10.06299973 6.78200006 7.08799982
10.06900024 6.76999998 6.49599981
10.06299973 6.79300022 6.49599981
10.05799961 6.77500010 7.09899998
10.05700016 6.77899981 7.08799982
10.06200027 6.77099991 6.49900007
10.05399990 6.80600023 6.50400019
10.05200005 6.75899982 6.50099993
10.03999996 6.75899982 6.51200008
10.03499985 6.75500011 6.52400017
10.03499985 6.75600004 6.51200008
10.02400017 6.74900007 6.51499987
10.00800037 6.76399994 6.52299976
9.99899960 6.77699995 6.51900005
10.41499996 6.98099995 7.73799992
10.41300011 6.98999977 7.72900009
10.41100025 7.00299978 7.72399998
10.39999962 7.06699991 7.23400021
10.39799976 7.08099985 7.22900009
10.40699959 6.98899984 7.73400021
10.40499973 6.99800014 7.72599983
10.39200020 7.00199986 7.72300005
10.38000011 7.00000000 7.72900009
10.38000011 7.00099993 7.71700001
10.37300014 7.00299978 7.71799994
10.35999966 7.01000023 7.71600008
10.34799957 7.01100016 7.71199989
10.34099960 7.01200008 7.71099997
10.36900043 6.80299997 8.06799984
10.35900021 6.85200024 8.08500004
10.33100033 6.99900007 7.72499990
10.32999992 7.00500011 7.71500015
10.32900047 7.01200008 7.70599985
10.35700035 6.80800009 8.06999969
10.35000038 6.84200001 8.07699966
10.32400036 6.97499990 7.74900007
10.32199955 6.98500013 7.74200010
10.32100010 6.99100018 7.73199987
10.31599998 7.01599979 7.73299980
10.31700039 7.01300001 7.71799994
10.31700039 7.01200008 7.70499992
10.34599972 6.82800007 8.11200047
10.34799957 6.82200003 8.06900024
10.34399986 6.84100008 8.06700039
10.31799984 6.97700024 7.74100018
10.31700039 6.98099995 7.73000002
10.31000042 7.01399994 7.72200012
10.31000042 7.01599979 7.71099997
10.31000042 7.01800013 7.69899988
10.33399963 6.82499981 8.07900047
10.33300018 6.82999992 8.06999969
10.33300018 6.83199978 8.05700016
10.24899960 7.23600006 8.08199978
10.29800034 7.01200008 7.69099998
10.30399990 6.99300003 7.23400021
10.32100010 6.82999992 8.05300045
10.32100010 6.83300018 8.04199982
10.31999969 6.83699989 8.03100014
10.23700047 7.23699999 8.07900047
10.28499985 7.01300001 7.68900013
10.29800034 6.96400023 7.27799988
10.31499958 6.83199978 8.04199982
10.31499958 6.83400011 8.02999973
10.31400013 6.84000015 8.02000046
10.23099995 7.23699999 8.07900047
10.22799969 7.24700022 8.07199955
10.28100014 7.00500011 7.68499994
10.27900028 7.01700020 7.67799997
10.29100037 6.96600008 7.28000021
10.22900009 7.17500019 8.25300026
10.30200005 6.83400011 8.01099968
10.30099964 6.83799982 8.00000000
10.30000019 6.84299994 7.98999977
10.22000027 7.22399998 8.07999992
10.21700001 7.23799992 8.07499981
10.21800041 7.17100000 8.24800014
10.21599960 7.17899990 8.23900032
10.22799969 7.12500000 8.19400024
10.28999996 6.83500004 7.99700022
10.28899956 6.84200001 7.98799992
10.28800011 6.84499979 7.97700024
10.28800011 6.84700012 7.96400023
10.28400040 6.86399984 7.94899988
10.28299999 6.87099981 7.94000006
10.28699970 6.85099983 7.91499996
10.27799988 6.89499998 7.91400003
10.27600002 6.90299988 7.90600014
10.26700020 6.96400023 7.25899982
10.21300030 7.16800022 8.25000000
10.21100044 7.17399979 8.23999977
10.22299957 7.11999989 8.19499969
10.27200031 6.89599991 7.91800022
10.27099991 6.90100002 7.90799999
10.26900005 6.91099977 7.90100002
10.26599979 6.92500019 7.89499998
10.26500034 6.92799997 7.88399982
10.26399994 6.93599987 7.87599993
10.26200008 6.94500017 7.86800003
10.26099968 6.94999981 7.85699987
10.25899982 6.95800018 7.84899998
10.25599957 6.97200012 7.84499979
10.25100040 7.00400019 7.65500021
10.26200008 6.95900011 7.26000023
10.20199966 7.16300011 8.18900013
10.20400047 7.15100002 8.15499973
10.20400047 7.15299988 8.14200020
10.20499992 7.14900017 8.12699986
10.20899963 7.13100004 8.08899975
10.20899963 7.13100004 8.06299973
10.21000004 7.12599993 8.04699993
10.21199989 7.11999989 8.02999973
10.21300030 7.11399984 8.01399994
10.21399975 7.10799980 7.99700022
10.21599960 7.09899998 7.97900009
10.22299957 7.06899977 7.93499994
10.24699974 6.95599985 7.84399986
10.24400043 6.96999979 7.83900023
10.24300003 6.97700024 7.82999992
10.22399998 7.06500006 7.84000015
10.22700024 7.05399990 7.80800009
10.22799969 7.04899979 7.79199982
10.23299980 7.02600002 7.76599979
10.26200008 6.89799976 7.34899998
10.26500034 6.88600016 7.32999992
10.18799973 7.16400003 8.21399975
10.18799973 7.16400003 8.20100021
10.18999958 7.15899992 8.18500042
10.19099998 7.15500021 8.16899967
10.20100021 7.10400009 8.12600040
10.19299984 7.14400005 8.13500023
10.19699955 7.12500000 8.11100006
10.19699955 7.12699986 8.05900002
10.19799995 7.12200022 8.04300022
10.19999981 7.11700010 8.02700043
10.20100021 7.11199999 8.01000023
10.20199966 7.10500002 7.99300003
10.20300007 7.10099983 7.97800016
10.20699978 7.08300018 7.95400000
10.20899963 7.07700014 7.91099977
10.21000004 7.07100010 7.89400005
10.21100044 7.06799984 7.87900019
10.21500015 7.04899979 7.85599995
10.25100040 6.89400005 7.34499979
10.18299961 7.16400003 8.22999954
10.18200016 7.16800022 8.21899986
10.18299961 7.16400003 8.20300007
10.18299961 7.15999985 8.18799973
10.18400002 7.15700006 8.17300034
10.19699955 7.09600019 8.12300014
10.19600010 7.10200024 8.11400032
10.19699955 7.09899998 8.09799957
10.19099998 7.12699986 8.04800034
10.19200039 7.12300014 8.03299999
10.22399998 6.98299980 7.61299992
10.22299957 6.98799992 7.60300016
10.22399998 6.98500013 7.58900023
10.22399998 6.98400021 7.57499981
10.22500038 6.98000002 7.55999994
10.22599983 6.97700024 7.54500008
10.22700024 6.97300005 7.53100014
10.24600029 6.88999987 7.34499979
10.25300026 6.78299999 8.02600002
10.17199993 7.15700006 8.19499969
10.17300034 7.15199995 8.17800045
10.19299984 7.07000017 7.86499977
10.19400024 7.06500006 7.84999990
10.19799995 7.04899979 7.81400013
10.19999981 7.03599977 7.79300022
10.20400047 7.02299976 7.74700022
10.20600033 7.01399994 7.72900009
10.20699978 7.00799990 7.71299982
10.20800018 7.00400019 7.69700003
10.20800018 7.00099993 7.68300009
10.21000004 6.99599981 7.66699982
10.21100044 6.99200010 7.65199995
10.21199989 6.98799992 7.63700008
10.21300030 6.98299980 7.62099981
10.21300030 6.98000002 7.60699987
10.21399975 6.97900009 7.59299994
10.21500015 6.97300005 7.57700014
10.21599960 6.96899986 7.56199980
10.21700001 6.96400023 7.54600000
10.21800041 6.96099997 7.53200006
10.21899986 6.95499992 7.51599979
10.22000027 6.95100021 7.50099993
10.22099972 6.94899988 7.48699999
10.22200012 6.94500017 7.47200012
10.22200012 6.94299984 7.45800018
10.22200012 6.94299984 7.44500017
10.22200012 6.94500017 7.43400002
10.23700047 6.87699986 7.35900021
10.23600006 6.88199997 7.34899998
10.21599960 6.97499990 7.27199984
10.21800041 6.96500015 7.24200010
10.15699959 7.17299986 8.04100037
10.15699959 7.17199993 8.02700043
10.17899990 7.07499981 7.90500021
10.17800045 7.07900000 7.89499998
10.19099998 7.02099991 7.74399996
10.19200039 7.01800013 7.72900009
10.19299984 7.01599979 7.71500015
10.19400024 7.00899982 7.69799995
10.19499969 7.00500011 7.68300009
10.19600010 7.00099993 7.66699982
10.19699955 6.99499989 7.65100002
10.19900036 6.98799992 7.63500023
10.20100021 6.98099995 7.61800003
10.20100021 6.97800016 7.60300016
10.20300007 6.97300005 7.58799982
10.20300007 6.96899986 7.57299995
10.20400047 6.96500015 7.55700016
10.20600033 6.95900011 7.54199982
10.20699978 6.95400000 7.52600002
10.21100044 6.93699980 7.47800016
10.21300030 6.92700005 7.46000004
10.21300030 6.92700005 7.44700003
10.21300030 6.92799997 7.43499994
10.21199989 6.93200016 7.42399979
10.21100044 6.93699980 7.41400003
10.21000004 6.94099998 7.40399981
10.22500038 6.87200022 7.35400009
10.20400047 6.97200012 7.28100014
10.20300007 6.97800016 7.27199984
10.20800018 6.95800018 7.23600006
10.17399979 7.06099987 8.12399960
10.14900017 7.17999983 8.04699993
10.14999962 7.17199993 8.02900028
10.17399979 7.06500006 7.91400003
10.17199993 7.07399988 7.90700006
10.18200016 7.03200006 7.69999981
10.18500042 7.01800013 7.67899990
10.18999958 6.99900007 7.65600014
10.18999958 6.99499989 7.64099979
10.19299984 6.98600006 7.62200022
10.19299984 6.98600006 7.61000013
10.19400024 6.98099995 7.59399986
10.19499969 6.97499990 7.57800007
10.19699955 6.96799994 7.56099987
10.19799995 6.96099997 7.54500008
10.19900036 6.95699978 7.53000021
10.20600033 6.92700005 7.46199989
10.20699978 6.92399979 7.44799995
10.20600033 6.92700005 7.42399979
10.20600033 6.92999983 7.41200018
10.20499992 6.93300009 7.40199995
10.21899986 6.86800003 7.35400009
10.20400047 6.94000006 7.38000011
10.19600010 6.97700024 7.28599977
10.16199970 7.05800009 8.14500046
10.16399956 7.04799986 8.12500000
10.16199970 7.06300020 7.92199993
10.16100025 7.06799984 7.91200018
10.16600037 7.05000019 7.70499992
10.18700027 6.95699978 7.52400017
10.18900013 6.94899988 7.50799990
10.19499969 6.92399979 7.45599985
10.19600010 6.92000008 7.44099998
10.19799995 6.90999985 7.40999985
10.19799995 6.90999985 7.39699984
10.21000004 6.85500002 7.35500002
10.20300007 6.88600016 7.35900021
10.19799995 6.90999985 7.35900021
10.19400024 6.93100023 7.35799980
10.19299984 6.93699980 7.34800005
10.19299984 6.93499994 7.33400011
10.14999962 7.06099987 7.93200016
10.14999962 7.06300020 7.91900015
10.15400028 7.04899979 7.71500015
10.15299988 7.05299997 7.70400000
10.22900009 6.70900011 7.34899998
10.22399998 6.73400021 7.33699989
10.22000027 6.75400019 7.33599997
10.20300007 6.83099985 7.30200005
10.19999981 6.84399986 7.29600000
10.19900036 6.84899998 7.28599977
10.19799995 6.85500002 7.27699995
10.19400024 6.87300014 7.27500010
10.18799973 6.90399981 7.27799988
10.18900013 6.89599991 7.26100016
10.18500042 6.91599989 7.25899982
10.18500042 6.91599989 7.24599981
10.18700027 6.90899992 7.23000002
10.14400005 7.05200005 8.15400028
10.14999962 7.02400017 8.12399960
10.14500046 7.05200005 7.94199991
10.14299965 7.05800009 7.93200016
10.14500046 7.05900002 7.71000004
10.22299957 6.70499992 7.34800005
10.21899986 6.72599983 7.34800005
10.21000004 6.76599979 7.35599995
10.18000031 6.90299988 7.40600014
10.17700005 6.91900015 7.40199995
10.17700005 6.91900015 7.38899994
10.17700005 6.91900015 7.37699986
10.17700005 6.91800022 7.36299992
10.17800045 6.91499996 7.34899998
10.17800045 6.91400003 7.33599997
10.17800045 6.91599989 7.32399988
10.17899990 6.90999985 7.30800009
10.18900013 6.86399984 7.27099991
10.18900013 6.86700010 7.26000023
10.18700027 6.87699986 7.25299978
10.18500042 6.88399982 7.24399996
10.18299961 6.89400005 7.23699999
10.18200016 6.90100002 7.22700024
10.11100006 7.14799976 8.22999954
10.14099979 7.01200008 8.13700008
10.14000034 7.01499987 8.12500000
10.13399982 7.04799986 7.94500017
10.13300037 7.05299997 7.93499994
10.13500023 7.04799986 7.76200008
10.13399982 7.05299997 7.75199986
10.13199997 7.06400013 7.74499989
10.13000011 7.07200003 7.73600006
10.13000011 7.07200003 7.72300005
10.11699963 7.12900019 7.74200010
10.21399975 6.69799995 7.34999990
10.20499992 6.73799992 7.35900021
10.19699955 6.77600002 7.36800003
10.17199993 6.88999987 7.39099979
10.17000008 6.89699984 7.38199997
10.16600037 6.91599989 7.38100004
10.16699982 6.91099977 7.36499977
10.16800022 6.90999985 7.35099983
10.16699982 6.91200018 7.34000015
10.16699982 6.91200018 7.32700014
10.17000008 6.89900017 7.30800009
10.17599964 6.87400007 7.28200006
10.16800022 6.91099977 7.28900003
10.16800022 6.90799999 7.27500010
10.16800022 6.90999985 7.26300001
10.16899967 6.90700006 7.24900007
10.17000008 6.90199995 7.23400021
10.09700012 7.15399981 8.24100018
10.11600018 7.07999992 7.72100019
10.10700035 7.12200022 7.73199987
10.17399979 6.82000017 7.46199989
10.20300007 6.69399977 7.35500002
10.19200039 6.74100018 7.36800003
10.18599987 6.76999998 7.37099981
10.15999985 6.88999987 7.37300014
10.15699959 6.90399981 7.36800003
10.15200043 6.92399979 7.36600018
10.15400028 6.91599989 7.34899998
10.15400028 6.91499996 7.33599997
10.16499996 6.86700010 7.29699993
10.15499973 6.91300011 7.30999994
10.15600014 6.90999985 7.29600000
10.15600014 6.90999985 7.28299999
10.15600014 6.91099977 7.27099991
10.15600014 6.91099977 7.25799990
10.15600014 6.90999985 7.24499989
10.15600014 6.90899992 7.23199987
10.09200001 7.14799976 8.24800014
10.09099960 7.15399981 8.23799992
10.12600040 7.00099993 7.96299982
10.11100006 7.07499981 7.71700001
10.09799957 7.13299990 7.73500013
10.17000008 6.81199980 7.46700001
10.16899967 6.81699991 7.45699978
10.16899967 6.81899977 7.44600010
10.19699955 6.69399977 7.35200024
10.15499973 6.88500023 7.38000011
10.14799976 6.91499996 7.38399982
10.13899994 6.95499992 7.39300013
10.14099979 6.94799995 7.37699986
10.14599991 6.92500019 7.35200024
10.15900040 6.86600018 7.30800009
10.15999985 6.86000013 7.29099989
10.14799976 6.91800022 7.30999994
10.14799976 6.91599989 7.29600000
10.14799976 6.91699982 7.28399992
10.14799976 6.91599989 7.27099991
10.14799976 6.91800022 7.25899982
10.14900017 6.91200018 7.24399996
10.14999962 6.90999985 7.23000002
10.07900047 7.14799976 8.25300026
10.10999966 7.01900005 7.97700024
10.09899998 7.07299995 7.71999979
10.15699959 6.81599998 7.44899988
10.15600014 6.82000017 7.43800020
10.14500046 6.87400007 7.39200020
10.14299965 6.88100004 7.38299990
10.12500000 6.96199989 7.41400003
10.12399960 6.96600008 7.40399981
10.15499973 6.82800007 7.30399990
10.15499973 6.83099985 7.29300022
10.06700039 7.15000010 8.24800014
10.08600044 7.07700014 7.72900009
10.14500046 6.81799984 7.43200016
10.14200020 6.83300018 7.42700005
10.13000011 6.88500023 7.44299984
10.13399982 6.86800003 7.39599991
10.13300037 6.87599993 7.38700008
10.11299992 6.96600008 7.42299986
10.11200047 6.96700001 7.41099977
10.14500046 6.82000017 7.30600023
10.14400005 6.82399988 7.29600000
10.07900047 7.07700014 7.73000002
10.13700008 6.82499981 7.42399979
10.13500023 6.83199978 7.41499996
10.13099957 6.85099983 7.41200018
10.12899971 6.85900021 7.40399981
10.12800026 6.86600018 7.39499998
10.10599995 6.96299982 7.43499994
10.10499954 6.96799994 7.42500019
10.08399963 6.99700022 8.02099991
10.08300018 7.00099993 8.01000023
10.08199978 7.00299978 7.99800014
10.12699986 6.81799984 7.42799997
10.11999989 6.84700012 7.41800022
10.11999989 6.84800005 7.40600014
10.11900043 6.85500002 7.39799976
10.09300041 6.96999979 7.44799995
10.09300041 6.96899986 7.43499994
10.07400036 6.98299980 8.03800011
10.07199955 6.99100018 8.02900028
10.07100010 6.99599981 8.02000046
10.11499977 6.81599998 7.42600012
10.10900021 6.84000015 7.40100002
10.07999992 6.96999979 7.45900011
10.07999992 6.97300005 7.44700003
10.06799984 6.97399998 8.04500008
10.06700039 6.98199987 8.03699970
10.06599998 6.98400021 8.02499962
10.10400009 6.83199978 7.40799999
10.07199955 6.97300005 7.46000004
10.07199955 6.97399998 7.44700003
10.06000042 6.96000004 8.05700016
10.05799961 6.96999979 8.04899979
10.05700016 6.97399998 8.03800011
10.06000042 6.97499990 7.46700001
10.05000019 6.94999981 8.07299995
10.04800034 6.95699978 8.06400013
10.04699993 6.96299982 8.05399990
10.04699993 6.97800016 7.48999977
10.04699993 6.97700024 7.47700024
10.04599953 6.93499994 8.11800003
10.04399967 6.94399977 8.08399963
10.04300022 6.95100021 8.07499981
10.04199982 6.95699978 8.06400013
10.03999996 6.97900009 7.50400019
10.03999996 6.97599983 7.48999977
10.03999996 6.97800016 7.47800016
10.03600025 6.92999983 8.09599972
10.03400040 6.93699980 8.08699989
10.03299999 6.94099998 8.07600021
10.02999973 6.95499992 8.07199955
10.02799988 6.98000002 7.51200008
10.02700043 6.98199987 7.50000000
10.02499962 6.92399979 8.10400009
10.02400017 6.92899990 8.09399986
10.01500034 6.98199987 7.52400017
10.01599979 6.98099995 7.51000023
10.02000046 6.91900015 8.11600018
10.01799965 6.92500019 8.10700035
10.01799965 6.92399979 8.09300041
10.00800037 6.98199987 7.53900003
10.00800037 6.98299980 7.52600002
10.00800037 6.98299980 7.51300001
10.01200008 6.89799976 8.14000034
10.01000023 6.90500021 8.13099957
10.00899982 6.91099977 8.12100029
9.99499989 6.98500013 7.54899979
9.99499989 6.98699999 7.53800011
10.01799965 6.81799984 8.17099953
10.00100040 6.89099979 8.14900017
10.00000000 6.89699984 8.13899994
9.99899960 6.90100002 8.12800026
9.98299980 6.98299980 7.57299995
9.98299980 6.98500013 7.56199980
9.98400021 6.98099995 7.54699993
10.01500034 6.80200005 8.16300011
10.01000023 6.82600021 8.16399956
9.99300003 6.90000010 8.18200016
9.99600029 6.88500023 8.15900040
9.99600029 6.88800001 8.14799976
9.99499989 6.89099979 8.13700008
9.97700024 6.98500013 7.57600021
9.97700024 6.98600006 7.56300020
10.00100040 6.80700016 8.17399979
10.00000000 6.81400013 8.16499996
9.98200035 6.88899994 8.19600010
9.98799992 6.86499977 8.16899967
9.98499966 6.87799978 8.16300011
9.96500015 6.97900009 7.59299994
9.96399975 6.98500013 7.58300018
9.97700024 6.86100006 8.19299984
9.97599983 6.86499977 8.18200016
9.97500038 6.87099981 8.17199993
