9.82100010 6.14900017 2.67499995
9.85999966 6.15999985 2.62800002
9.85900021 6.15999985 2.61800003
9.85499954 6.15899992 2.60899997
9.84200001 6.15600014 2.60299993
10.34899998 6.27199984 2.95600009
10.35400009 6.27299976 2.94499993
10.36299992 6.27799988 2.83899999
10.36699963 6.27899981 2.82800007
10.36900043 6.28000021 2.81800008
10.36699963 6.27899981 2.80900002
10.37199974 6.28100014 2.79800010
10.36600018 6.27899981 2.79099989
10.36200047 6.27899981 2.78200006
10.35499954 6.27699995 2.77399993
10.48499966 6.31300020 2.70700002
9.91600037 6.15899992 2.81699991
9.92599964 6.16200018 2.80500007
10.43500042 6.30000019 2.68099999
9.80500031 6.13100004 2.74300003
9.93500042 6.16699982 2.70600009
9.94099998 6.16800022 2.69499993
9.93700027 6.16699982 2.68600011
9.81599998 6.13500023 2.70199990
9.81799984 6.13600016 2.69199991
9.82499981 6.13800001 2.68099999
9.82999992 6.13999987 2.67000008
9.83100033 6.13999987 2.66000009
9.84700012 6.14499998 2.64700007
9.87699986 6.15299988 2.63100004
9.87199974 6.15199995 2.62199998
9.86299992 6.15000010 2.61400008
9.86400032 6.15000010 2.60400009
10.35000038 6.26599979 2.95499992
10.33199978 6.26399994 2.84599996
10.36900043 6.27400017 2.82800007
10.36800003 6.27400017 2.81900001
10.36800003 6.27400017 2.80900002
10.36999989 6.27500010 2.79900002
10.37399960 6.27600002 2.78900003
10.37399960 6.27600002 2.77900004
10.37100029 6.27600002 2.77099991
10.48499966 6.30700016 2.70700002
10.48900032 6.30900002 2.69700003
9.92099953 6.15500021 2.81599998
9.92099953 6.15500021 2.80599999
10.43099976 6.29300022 2.68199992
10.42000008 6.29099989 2.67499995
10.41499996 6.28999996 2.66599989
10.40400028 6.28599977 2.66000009
9.80200005 6.12400007 2.74399996
9.80500031 6.12599993 2.73399997
9.94400024 6.16400003 2.68400002
9.82999992 6.13399982 2.66000009
9.88000011 6.14699984 2.64000010
9.88399982 6.14900017 2.62899995
9.87899971 6.14799976 2.62100005
9.86900043 6.14499998 2.61299992
10.35499954 6.25600004 2.96700001
10.34899998 6.25400019 2.95900011
10.38199997 6.26700020 2.78999996
10.39000034 6.26900005 2.77900004
10.38599968 6.26800013 2.76999998
10.48799992 6.29699993 2.70900011
10.42000008 6.27899981 2.68700004
10.40799999 6.27600002 2.66199994
10.39099979 6.27199984 2.65599990
10.38000011 6.26900005 2.64899993
9.81200027 6.11499977 2.74499989
9.81299973 6.11600018 2.73499990
9.94699955 6.15299988 2.67700005
9.94600010 6.15299988 2.66700006
9.85599995 6.12900019 2.65700006
9.90499973 6.14200020 2.63700008
9.89700031 6.13999987 2.62899995
10.35900021 6.24499989 2.97300005
10.35400009 6.24399996 2.96399999
10.39599991 6.25899982 2.78399992
10.40499973 6.26200008 2.77200007
10.40499973 6.26200008 2.76300001
10.48999977 6.28599977 2.71499991
10.42000008 6.26700020 2.70400000
10.37100029 6.25500011 2.65799999
10.37300014 6.25600004 2.64800000
10.35000038 6.25000000 2.64400005
9.80900002 6.10300016 2.74300003
9.95400047 6.14300013 2.67300010
9.94900036 6.14200020 2.66400003
9.94900036 6.14200020 2.65499997
9.92500019 6.13600016 2.65000010
9.92199993 6.13500023 2.64100003
9.91199970 6.13299990 2.63299990
10.36499977 6.24200010 2.97399998
10.35200024 6.23799992 2.96700001
10.41100025 6.25799990 2.77399993
10.40799999 6.25799990 2.76500010
10.49100018 6.28100014 2.71799994
9.90900040 6.12300014 2.80200005
10.37100029 6.25000000 2.65100002
9.80300045 6.09499979 2.75699997
9.80500031 6.09600019 2.74699998
9.94999981 6.13600016 2.66599989
9.94699955 6.13600016 2.65700006
9.93700027 6.13299990 2.65000010
9.98200035 6.14599991 2.63100004
9.91899967 6.12900019 2.63400006
10.37699986 6.23400021 2.97499990
10.36800003 6.23199987 2.96799994
10.42199993 6.25000000 2.77500010
10.42700005 6.25099993 2.76500010
10.42599964 6.25099993 2.75600004
10.49300003 6.26999998 2.73099995
10.49300003 6.26999998 2.72199988
9.90699959 6.11100006 2.80699992
10.36699963 6.23799992 2.65599990
9.80599976 6.08400011 2.76099992
9.95199966 6.12599993 2.66100001
9.95499992 6.12699986 2.65000010
9.95100021 6.12599993 2.64199996
9.99400043 6.13800001 2.62299991
10.43400002 6.24200010 2.77200007
10.44099998 6.24399996 2.76099992
10.44099998 6.24499989 2.75200009
10.49499989 6.26000023 2.73000002
9.90699959 6.09899998 2.80599999
10.37100029 6.22800016 2.66400003
10.37500000 6.22900009 2.65400004
9.81099987 6.07399988 2.75900006
9.96899986 6.11899996 2.65599990
9.96500015 6.11800003 2.64700007
9.97999954 6.12200022 2.63499999
10.00199986 6.12900019 2.61999989
10.44600010 6.23999977 2.76999998
10.44999981 6.24100018 2.75999999
10.46300030 6.24499989 2.74799991
10.49400043 6.25400019 2.73099995
9.91100025 6.09399986 2.80599999
10.37899971 6.22399998 2.66300011
9.81700039 6.07000017 2.75799990
9.98099995 6.11600018 2.66400003
9.97900009 6.11600018 2.65499997
9.96899986 6.11299992 2.64800000
10.00100040 6.12300014 2.62100005
10.40299988 6.21299982 2.97099996
10.41600037 6.21700001 2.95900011
10.46399975 6.23400021 2.75900006
10.49600029 6.24399996 2.74200010
10.42099953 6.22300005 2.75000000
10.39900017 6.21700001 2.74499989
10.38399982 6.21500015 2.66400003
9.81900024 6.05900002 2.75999999
9.99199963 6.10799980 2.66400003
9.99400043 6.10900021 2.65400004
9.98099995 6.10599995 2.64700007
10.01099968 6.11399984 2.63100004
10.00599957 6.11299992 2.62199998
9.97500038 6.10500002 2.61899996
10.44900036 6.21400023 2.97499990
10.41399956 6.20499992 2.97399998
10.40799999 6.20300007 2.96600008
10.48999977 6.23000002 2.74900007
10.38799953 6.20300007 2.74499989
10.00599957 6.09999990 2.66700006
10.00899982 6.10099983 2.65700006
9.99499989 6.09700012 2.65000010
10.01700020 6.10400009 2.63599992
10.01299953 6.10300016 2.62700009
9.97099972 6.09100008 2.62599993
10.43999958 6.20599985 2.97900009
10.44400024 6.20800018 2.96799994
10.42599964 6.20300007 2.96300006
10.48900032 6.22499990 2.75099993
10.38799953 6.19700003 2.74600005
10.01700020 6.09700012 2.66599989
10.01700020 6.09800005 2.65599990
10.01000023 6.09600019 2.64800000
10.02499962 6.09999990 2.63499999
9.96899986 6.08500004 2.63800001
9.97200012 6.08599997 2.62700009
9.96899986 6.08599997 2.61800003
10.46700001 6.20300007 2.97399998
10.38300037 6.18400002 2.74900007
10.03299999 6.09000015 2.67499995
10.03499985 6.09000015 2.66400003
10.02700043 6.08799982 2.65700006
10.03400040 6.09100008 2.64499998
10.04899979 6.08199978 2.67100000
10.05300045 6.08300018 2.66100001
10.04399967 6.08099985 2.65300012
10.06099987 6.07999992 2.67300010
10.05799961 6.07900000 2.66400003
10.05099964 6.07800007 2.65599990
10.07400036 6.07200003 2.67499995
10.07299995 6.07200003 2.66599989
10.06700039 6.07000017 2.65799999
9.99400043 6.03599977 2.78800011
10.08800030 6.06400013 2.67100000
10.08500004 6.06400013 2.66199994
10.00199986 6.03299999 2.78900003
10.09399986 6.05900002 2.72900009
10.09599972 6.05999994 2.72000003
10.10200024 6.06199980 2.70799994
10.10200024 6.06199980 2.69899988
10.09200001 6.05999994 2.67199993
10.09000015 6.05999994 2.66300011
10.07299995 6.04099989 2.81200004
10.06799984 6.03999996 2.79399991
10.07299995 6.04099989 2.78299999
10.09200001 6.04699993 2.74099994
10.10099983 6.05000019 2.72900009
10.10400009 6.05100012 2.71900010
10.10200024 6.05100012 2.70900011
10.09899998 6.05000019 2.70000005
10.10099983 6.05100012 2.69099998
10.10599995 6.05299997 2.68000007
10.10900021 6.05299997 2.67000008
10.10099983 6.05100012 2.66199994
10.07900047 6.03100014 2.79999995
10.07900047 6.03100014 2.78999996
9.99400043 6.00799990 2.77099991
10.11800003 6.04500008 2.67600012
10.11900043 6.04500008 2.66599989
10.11299992 6.04400015 2.65799999
10.11999989 6.03900003 2.67899990
10.12600040 6.04099989 2.66799998
10.12199974 6.03999996 2.65899992
10.44600010 6.11600018 2.81800008
10.13899994 6.03299999 2.67799997
10.14099979 6.03399992 2.66799998
10.13700008 6.03299999 2.66000009
10.44299984 6.10500002 2.81800008
10.09799957 6.00799990 2.79200006
10.14500046 6.02299976 2.67600012
10.15400028 6.02600002 2.66499996
10.14500046 6.02400017 2.65700006
10.14999962 6.01499987 2.85999990
10.16100025 6.02099991 2.66499996
10.15600014 6.01999998 2.65700006
10.16600037 6.00799990 2.85899997
10.13799953 6.00000000 2.84599996
10.17199993 6.01300001 2.66499996
10.17199993 6.01399994 2.65499997
10.15799999 5.99399996 2.87500000
10.18000031 6.00500011 2.66899991
10.18900013 6.00699997 2.65700006
10.18200016 6.00600004 2.64899993
10.15200043 5.98600006 2.89599991
10.15400028 5.98600006 2.88599992
10.18700027 6.00000000 2.66700006
10.19600010 6.00299978 2.65499997
10.19099998 6.00199986 2.64700007
10.15400028 5.97399998 2.87899995
10.20199966 5.99300003 2.66700006
10.20699978 5.99399996 2.65599990
10.20499992 5.99399996 2.64700007
10.15699959 5.96500015 2.87500000
10.21100044 5.98500013 2.66100001
10.21899986 5.98699999 2.64899993
10.21300030 5.98600006 2.64100003
10.16199970 5.96000004 2.87599993
10.22399998 5.98299980 2.65100002
10.22200012 5.98199987 2.64199996
10.24600029 5.97800016 2.65799999
9.02000046 6.62200022 2.72300005
9.01799965 6.62200022 2.71399999
9.02099991 6.61000013 2.71499991
9.00500011 6.60699987 2.70799994
9.08199978 6.61100006 2.71300006
9.05900002 6.60599995 2.70799994
9.04500008 6.59700012 2.71399999
9.04599953 6.59700012 2.70300007
9.02799988 6.57999992 2.71199989
9.03299999 6.58099985 2.70099998
9.01399994 6.56500006 2.74600005
9.02499962 6.56699991 2.73300004
9.02900028 6.56799984 2.72199988
9.03100014 6.56899977 2.70199990
8.93400002 6.54899979 2.67000008
8.93000031 6.54799986 2.66000009
9.03199959 6.56400013 2.72499990
9.03600025 6.56500006 2.70300007
9.02400017 6.56199980 2.69499993
8.93299961 6.54300022 2.67300010
8.93599987 6.54400015 2.66199994
8.94600010 6.54600000 2.65000010
9.03100014 6.55200005 2.69600010
9.02400017 6.55100012 2.68700004
8.96100044 6.53700018 2.65899992
9.02499962 6.53800011 2.68400002
8.98400021 6.52899981 2.68300009
8.98999977 6.53100014 2.67100000
8.97999954 6.52899981 2.66300011
9.36100006 6.60400009 2.85700011
9.02200031 6.53200006 2.68499994
9.01200008 6.53000021 2.67700005
9.00100040 6.52799988 2.66899991
9.35999966 6.59200001 2.88000011
9.36400032 6.59299994 2.85899997
9.02499962 6.52099991 2.67700005
9.02099991 6.51999998 2.66700006
9.37899971 6.58400011 2.86700010
9.37699986 6.58400011 2.85700011
9.03600025 6.51100016 2.67499995
9.03199959 6.51000023 2.66599989
9.38700008 6.57900000 2.86800003
9.38399982 6.57900000 2.85800004
9.03499985 6.50400019 2.66799998
9.03299999 6.50400019 2.65899992
9.44099998 6.57900000 2.90899992
9.44400024 6.57999992 2.89800000
9.45100021 6.58199978 2.88700008
9.45899963 6.58400011 2.87400007
9.42099953 6.57499981 2.87299991
9.40999985 6.57299995 2.86599994
9.39099979 6.56899977 2.85999990
9.03800011 6.49399996 2.66000009
9.48200035 6.57700014 2.87899995
9.41499996 6.56199980 2.88400006
9.38500023 6.55499983 2.88100004
9.04399967 6.48299980 2.65899992
9.39200020 6.56500006 2.47000003
8.89799976 6.45200014 2.52300000
8.88799953 6.44999981 2.51399994
9.49100018 6.57299995 2.87899995
9.48499966 6.57100010 2.87100005
9.51900005 6.57999992 2.85299993
9.05200005 6.47800016 2.65899992
9.04599953 6.47700024 2.65000010
9.39000034 6.55800009 2.47300005
9.38399982 6.55700016 2.46399999
8.89500046 6.44500017 2.52600002
8.89400005 6.44500017 2.51600003
9.51399994 6.56599998 2.88800001
9.50500011 6.56400013 2.88000011
9.05000019 6.46500015 2.65300012
9.05099964 6.46600008 2.64299989
9.38099957 6.54400015 2.46799994
8.89500046 6.43300009 2.52999997
8.90400028 6.43499994 2.51799989
9.05300045 6.45499992 2.65199995
9.05200005 6.45400000 2.64199996
8.96800041 6.43599987 2.59699988
8.95699978 6.43400002 2.58899999
8.95499992 6.43400002 2.57900000
8.94900036 6.43300009 2.56999993
8.97000027 6.43699980 2.55599999
9.37100029 6.53100014 2.46900010
8.91300011 6.42500019 2.52500010
8.90499973 6.42399979 2.51600003
9.05700016 6.44899988 2.64400005
8.97700024 6.43100023 2.59800005
8.95800018 6.42799997 2.57100010
9.36299992 6.52199984 2.47300005
8.93099976 6.42299986 2.52500010
8.90299988 6.41599989 2.51999998
9.05700016 6.43699980 2.64800000
8.95899963 6.41699982 2.54399991
8.88500023 6.40000010 2.52699995
8.88700008 6.40100002 2.51600003
9.06000042 6.42600012 2.64499998
9.35499954 6.49800014 2.48699999
9.33199978 6.49300003 2.46099997
8.88099957 6.38800001 2.51600003
9.06200027 6.42000008 2.64800000
9.06000042 6.41900015 2.63800001
9.34300041 6.48699999 2.51099992
9.34399986 6.48799992 2.50200009
9.35499954 6.49100018 2.48900008
9.06400013 6.40899992 2.63899994
9.33699989 6.47499990 2.51500010
8.98499966 6.39200020 2.54299998
9.08300018 6.40100002 2.66199994
9.07999992 6.40000010 2.65199995
9.06999969 6.39799976 2.64400005
9.06599998 6.39699984 2.63499999
9.36999989 6.47100019 2.48499990
9.00100040 6.38399982 2.54500008
9.08199978 6.39300013 2.65400004
9.07900047 6.39300013 2.64400005
9.06900024 6.39099979 2.63599992
9.07499981 6.39300013 2.62400007
9.38799953 6.46799994 2.48300004
8.99699974 6.37599993 2.54800010
9.00199986 6.37699986 2.53600001
8.98400021 6.37300014 2.51900005
9.08100033 6.38199997 2.62500000
9.08500004 6.38299990 2.61400008
9.37899971 6.45400000 2.50699997
9.38000011 6.45400000 2.49600005
9.01000023 6.36700010 2.54699993
8.96700001 6.35699987 2.51399994
9.09500027 6.37400007 2.61400008
9.10000038 6.37500000 2.60299993
9.04300022 6.36199999 2.60400009
9.07600021 6.36999989 2.58699989
9.04199982 6.36199999 2.57299995
9.03400040 6.36100006 2.56399989
9.38500023 6.44399977 2.48699999
9.11100006 6.37099981 2.60299993
9.04500008 6.35599995 2.57500005
9.38399982 6.43699980 2.48900008
9.38399982 6.43699980 2.48000002
9.14200020 6.36600018 2.59999990
9.13700008 6.36600018 2.59100008
9.04599953 6.34399986 2.57800007
9.38599968 6.42700005 2.48200011
8.98400021 6.32999992 2.53900003
9.13000011 6.35200024 2.62199998
9.18000031 6.36399984 2.60200000
9.17099953 6.36199999 2.59400010
9.17199993 6.36199999 2.58299994
9.04399967 6.33199978 2.57800007
9.03699970 6.33099985 2.56900001
9.38700008 6.41499996 2.48200011
8.99499989 6.32100010 2.54600000
9.12699986 6.34399986 2.62299991
9.19499969 6.36100006 2.58899999
9.19200039 6.36100006 2.57900000
9.04399967 6.32600021 2.57800007
9.03400040 6.32299995 2.56999993
9.02600002 6.32200003 2.56100011
9.38399982 6.40799999 2.48200011
9.01399994 6.31899977 2.54299998
9.12199974 6.33099985 2.63599992
9.12899971 6.33300018 2.62500000
9.21599960 6.35400009 2.58699989
9.22900009 6.35799980 2.57500005
9.22000027 6.35599995 2.56599998
9.02400017 6.30900002 2.56399989
9.39500046 6.39900017 2.48200011
9.37199974 6.39400005 2.47600007
9.11600018 6.31799984 2.64499998
9.25399971 6.35200024 2.56699991
9.24899960 6.35099983 2.55800009
9.02600002 6.29699993 2.57100010
9.39999962 6.38899994 2.47900009
9.35400009 6.37799978 2.46799994
9.11600018 6.31099987 2.64800000
9.26399994 6.34899998 2.56699991
9.26099968 6.34800005 2.55800009
9.40699959 6.38500023 2.48000002
9.35499954 6.37200022 2.47000003
9.12399960 6.30100012 2.65899992
9.12300014 6.30100012 2.64899993
9.27999973 6.34000015 2.55699992
9.40100002 6.36999989 2.51300001
9.41100025 6.37300014 2.49200010
9.12600040 6.28800011 2.65599990
9.29800034 6.33199978 2.55200005
9.41899967 6.36199999 2.49799991
9.29699993 6.33300018 2.50099993
9.29899979 6.33400011 2.49099994
9.12399960 6.28299999 2.65599990
9.30700016 6.32900000 2.55900002
9.30599976 6.32900000 2.54900002
9.42099953 6.35799980 2.49699998
9.29399967 6.32700014 2.50099993
9.29599953 6.32700014 2.49099994
9.28199959 6.32399988 2.48399997
9.27400017 6.32200003 2.47499990
9.12500000 6.26999998 2.65599990
9.32699966 6.32200003 2.54500008
9.32499981 6.32100010 2.53500009
9.30599976 6.31799984 2.48900008
9.12300014 6.25699997 2.66300011
9.34500027 6.31300020 2.53800011
9.34599972 6.31400013 2.52699995
9.42700005 6.33400011 2.49200010
9.33699989 6.31199980 2.49900007
9.32600021 6.30900002 2.49200010
9.12199974 6.25199986 2.66300011
9.35099983 6.30999994 2.53699994
9.35400009 6.31099987 2.52600002
9.34200001 6.30800009 2.49799991
9.37199974 6.30299997 2.52699995
9.39000034 6.29600000 2.51500010
9.04599953 6.20400000 2.59800005
9.39900017 6.29199982 2.50799990
9.40999985 6.28399992 2.51099992
9.31000042 6.24700022 2.47900009
9.30700016 6.24599981 2.46900010
9.32499981 6.24399996 2.48699999
9.31200027 6.24100018 2.47900009
9.34000015 6.23600006 2.49499989
9.38899994 6.23600006 2.49099994
9.35999966 6.22900009 2.48699999
9.37100029 6.22499990 2.49399996
9.35700035 6.22200012 2.48600006
9.34799957 6.20800018 2.49000001
9.34000015 6.19399977 2.49000001
9.33899975 6.18800020 2.49000001
9.34000015 6.18800020 2.48000002
9.32900047 6.17299986 2.50300002
9.32800007 6.17299986 2.49300003
9.32699966 6.17299986 2.48300004
9.33199978 6.16200018 2.51999998
9.32999992 6.16099977 2.50999999
9.33399963 6.16300011 2.50000000
9.35599995 6.14900017 2.53800011
9.35000038 6.14799976 2.52900004
9.29100037 6.13399982 2.47000003
9.27900028 6.11899996 2.47000003
9.26900005 6.11700010 2.46099997
9.27700043 6.11100006 2.47199988
9.65999985 6.50799990 3.08200002
9.66100025 6.49700022 3.07299995
9.66300011 6.49100018 3.07599998
9.66100025 6.47900009 3.07900000
9.66600037 6.46999979 3.07699990
9.66800022 6.46299982 3.07699990
9.65600014 6.46099997 3.06999993
9.66399956 6.45100021 3.07100010
9.65699959 6.44999981 3.06200004
9.65100002 6.43699980 3.08100009
9.66199970 6.44000006 3.06900001
9.65799999 6.43900013 3.05900002
9.65600014 6.43900013 3.04999995
9.65799999 6.43300009 3.05200005
9.93299961 6.46999979 3.04500008
9.93299961 6.45900011 3.04500008
9.94400024 6.44899988 3.04900002
9.93700027 6.44700003 3.04099989
9.93099976 6.44600010 3.03200006
9.94299984 6.44399977 3.04900002
9.94999981 6.43400002 3.06100011
9.95199966 6.43499994 3.05200005
9.94600010 6.42100000 3.07399988
9.95899963 6.42399979 3.06100011
9.94400024 6.41499996 3.06999993
9.30900002 6.15600014 2.47399998
9.34099960 6.15700006 2.52900004
9.33500004 6.15600014 2.51999998
9.30700016 6.14900017 2.47600007
9.31599998 6.15799999 2.48300004
10.34399986 5.67700005 2.56900001
10.34300041 5.66499996 2.57299995
10.34599972 5.64799976 2.57699990
10.26700020 5.59800005 2.64400005
10.34399986 5.62400007 2.57999992
10.27099991 5.59399986 2.64499998
10.34500027 5.61899996 2.58100009
10.27999973 5.58500004 2.64299989
10.29300022 5.57800007 2.63599992
10.29599953 5.57900000 2.62599993
10.34700012 5.59700012 2.58599997
10.30200005 5.57600021 2.62700009
10.30500031 5.57700014 2.61700010
10.32100010 5.57100010 2.60700011
10.34599972 5.57900000 2.58299994
10.35400009 5.57000017 2.58699989
10.35299969 5.56300020 2.58899999
10.35799980 5.54199982 2.58599997
10.35900021 5.53599977 2.58699989
10.36600018 5.52799988 2.58999991
10.36699963 5.51599979 2.58699989
10.37500000 5.50199986 2.58400011
10.37199974 5.48999977 2.58100009
10.37699986 5.48500013 2.58100009
10.37300014 5.45499992 2.56999993
10.38899994 5.43499994 2.66199994
10.37199974 5.42899990 2.64700007
10.36600018 5.42799997 2.63899994
10.37399960 5.43200016 2.56999993
10.37399960 5.40199995 2.60700011
10.37399960 5.40299988 2.57800007
10.38099957 5.39900017 2.59800005
10.38500023 5.36000013 2.56900001
10.38599968 5.34899998 2.56599998
10.39900017 5.34700012 2.57299995
10.43099976 5.34600019 2.58899999
10.38899994 5.33199978 2.55900002
10.38799953 5.32000017 2.55500007
10.39500046 5.29400015 2.56699991
10.39900017 5.28900003 2.56500006
10.41199970 5.28200006 2.57699990
10.41100025 5.28200006 2.56699991
10.42500019 5.27500010 2.56999993
10.43599987 5.27299976 2.57100010
9.40200043 5.78299999 2.68700004
9.38899994 5.78000021 2.67899990
9.41499996 5.78000021 2.69400001
9.40600014 5.77699995 2.68600011
9.10900021 5.35099983 2.91100001
10.09899998 5.66200018 2.67400002
10.17700005 5.68699980 2.64700007
10.22599983 5.70200014 2.62700009
10.22599983 5.70200014 2.61800003
9.49499989 5.47399998 2.71499991
9.82699966 5.57900000 2.62500000
9.81000042 5.57399988 2.61800003
9.78199959 5.56500006 2.61500001
9.06999969 5.33199978 2.92199993
9.11999989 5.34800005 2.90100002
10.10200024 5.65700006 2.66700006
10.13799953 5.66800022 2.64899993
10.14599991 5.67100000 2.63800001
9.84399986 5.57800007 2.62400007
9.83300018 5.57499981 2.61599994
9.79300022 5.56199980 2.61500001
9.82900047 5.55700016 2.79099989
9.05200005 5.31300020 2.94300008
9.06099987 5.31599998 2.93000007
9.13199997 5.33900023 2.89400005
10.05000019 5.62799978 2.67400002
10.08800030 5.63999987 2.65599990
10.08100033 5.63800001 2.64800000
9.91499996 5.58699989 2.65400004
9.90699959 5.58400011 2.64599991
9.89900017 5.58199978 2.63800001
9.88700008 5.57900000 2.63100004
9.86999989 5.57399988 2.62400007
9.66699982 5.51000023 2.64700007
9.75599957 5.53800011 2.61800003
9.89200020 5.56500006 2.83400011
9.04800034 5.30000019 2.95099998
9.14099979 5.32999992 2.88899994
10.02700043 5.61000013 2.67600012
10.08899975 5.63000011 2.65300012
10.02200031 5.60900021 2.65799999
9.91600037 5.57600021 2.65100002
9.90499973 5.57299995 2.64400005
9.90299988 5.57299995 2.63400006
9.47700024 5.43900013 2.70400000
9.63099957 5.48699999 2.66199994
9.74199963 5.52299976 2.61899996
9.74100018 5.52299976 2.60899997
9.88899994 5.55800009 2.83400011
9.14999962 5.32600021 2.88599992
10.06200027 5.61499977 2.65799999
9.99800014 5.59499979 2.66199994
9.92500019 5.57299995 2.64899993
9.63599968 5.48199987 2.66000009
9.73600006 5.51399994 2.61899996
9.89099979 5.54600000 2.83500004
9.03299999 5.27500010 2.97700000
9.85200024 5.53499985 2.78500009
9.88399982 5.54699993 2.71799994
9.97799969 5.57700014 2.67799997
9.97099972 5.57499981 2.67000008
9.88399982 5.54799986 2.65899992
9.08500004 5.29500008 2.81900001
9.06099987 5.28700018 2.81399989
9.63700008 5.46999979 2.66199994
9.98099995 5.56199980 2.89000010
9.84599972 5.51999998 2.86100006
9.89700031 5.53700018 2.82999992
9.02999973 5.26200008 2.99499989
9.88000011 5.53299999 2.78399992
9.87500000 5.53100014 2.77600002
9.88099957 5.53299999 2.76399994
9.88199997 5.53399992 2.75399995
9.88399982 5.53499985 2.74399996
9.88599968 5.53599977 2.73399997
9.88899994 5.53700018 2.72300005
9.93799973 5.55299997 2.68300009
9.93900013 5.55299997 2.67300010
9.11299992 5.29199982 2.80900002
9.06700039 5.27699995 2.80800009
9.97999954 5.55600023 2.89199996
9.85000038 5.51499987 2.86299992
9.89599991 5.53100014 2.82200003
9.89400005 5.53000021 2.81299996
9.88700008 5.52799988 2.79500008
9.88399982 5.52799988 2.78500009
9.88099957 5.52699995 2.77600002
9.88199997 5.52799988 2.76600003
9.88199997 5.52799988 2.75600004
9.88500023 5.52899981 2.74600005
9.89000034 5.53100014 2.73499990
9.89299965 5.53200006 2.72399998
9.92700005 5.54300022 2.68700004
9.92800045 5.54400015 2.67700005
9.13300037 5.29099989 2.80699992
9.98600006 5.54600000 2.89400005
9.89400005 5.51800013 2.82699990
10.08300018 5.57900000 2.75500011
9.87800026 5.51399994 2.77999997
10.09799957 5.58500004 2.67300010
9.89599991 5.52099991 2.69799995
9.89799976 5.52199984 2.68700004
9.99499989 5.53700018 2.90100002
9.98900032 5.53499985 2.89299989
9.88000011 5.50099993 2.84899998
9.88799953 5.50400019 2.83699989
9.89200020 5.50500011 2.82599998
10.08399963 5.56799984 2.75399995
10.25199986 5.62300014 2.65799999
10.10200024 5.57499981 2.68099999
10.09899998 5.57399988 2.67300010
9.84899998 5.49399996 2.71700001
9.87399960 5.50199986 2.70099998
9.87800026 5.50400019 2.69099998
9.83300018 5.48999977 2.67100000
9.99300003 5.53000021 2.89800000
9.88700008 5.49800014 2.83299994
10.08199978 5.56099987 2.75000000
10.10000038 5.56799984 2.67799997
9.84300041 5.48600006 2.71399999
9.86499977 5.49300003 2.70000005
9.87300014 5.49599981 2.68799996
10.06200027 5.53800011 2.94600010
10.02900028 5.52799988 2.94400001
10.02499962 5.52699995 2.93499994
10.01500034 5.52400017 2.92700005
10.00800037 5.52199984 2.92000008
10.00100040 5.51999998 2.89199996
9.88199997 5.48400021 2.82999992
10.08399963 5.55000019 2.74499989
10.07800007 5.54799986 2.73699999
10.08100033 5.54899979 2.72600007
10.11299992 5.55999994 2.68000007
9.82800007 5.46899986 2.71300006
9.84300041 5.47399998 2.70000005
9.81799984 5.46600008 2.67600012
10.06400013 5.52699995 2.94300008
10.04599953 5.52199984 2.93799996
10.00599957 5.51000023 2.88800001
9.88000011 5.47100019 2.82800007
10.09399986 5.54199982 2.72099996
10.09799957 5.54300022 2.71000004
10.10200024 5.54500008 2.70000005
9.81700039 5.45400000 2.71300006
9.84399986 5.46299982 2.69700003
9.80000019 5.44899988 2.67700005
10.04300022 5.51499987 2.93899989
10.00899982 5.50500011 2.88800001
9.87600040 5.46400023 2.82999992
10.10900021 5.54099989 2.69899988
10.10700035 5.53999996 2.69000006
9.78999996 5.43900013 2.72000003
9.79399967 5.44099998 2.67899990
10.01399994 5.49399996 2.88800001
9.86999989 5.44999981 2.82200003
9.77499962 5.42199993 2.72399998
9.79599953 5.42899990 2.68899989
9.78299999 5.42500019 2.68199992
9.76200008 5.41800022 2.67600012
9.39799976 5.30100012 2.74399996
10.02200031 5.48600006 2.89100003
10.02200031 5.48600006 2.88100004
9.87600040 5.44099998 2.81599998
9.86499977 5.43699980 2.80800009
10.11499977 5.51999998 2.70400000
9.76900005 5.40799999 2.72000003
9.77999973 5.41300011 2.68799996
9.76500034 5.40799999 2.68099999
9.40400028 5.29099989 2.73799992
10.08199978 5.49900007 2.89000010
10.02700043 5.48199987 2.89299989
10.02700043 5.48199987 2.88299990
9.86299992 5.43100023 2.81200004
9.85499954 5.42799997 2.80399990
10.11200047 5.51300001 2.70799994
10.10900021 5.51200008 2.69899988
9.77200031 5.40399981 2.69300008
9.76299953 5.40100002 2.68499994
9.74300003 5.39499998 2.67899990
10.04199982 5.47499990 2.89299989
10.02700043 5.46999979 2.88700008
9.83300018 5.40899992 2.82299995
9.82999992 5.40799999 2.81299996
9.83300018 5.40899992 2.80299997
10.11200047 5.50099993 2.71099997
10.11400032 5.50199986 2.70099998
9.76299953 5.38899994 2.69899988
9.75500011 5.38700008 2.69000006
9.73900032 5.38199997 2.68300009
9.71599960 5.37400007 2.67899990
9.44299984 5.28599977 2.72600007
10.02499962 5.45699978 2.89299989
9.84000015 5.39799976 2.85700011
9.83800030 5.39799976 2.84800005
9.83899975 5.39799976 2.83699989
9.84099960 5.39900017 2.82699990
9.82600021 5.39499998 2.79999995
10.11200047 5.48899984 2.71700001
10.11600018 5.49100018 2.70600009
9.73799992 5.36899996 2.69000006
9.72500038 5.36399984 2.68300009
9.69600010 5.35500002 2.67899990
9.41399956 5.26700020 2.53500009
9.40100002 5.26300001 2.52699995
10.02499962 5.45100021 2.89499998
9.83600044 5.39099979 2.84999990
9.84099960 5.39300013 2.83899999
9.82699966 5.38899994 2.80200005
10.12399960 5.48699999 2.71600008
10.11999989 5.48600006 2.70700002
9.73299980 5.36100006 2.69300008
9.72200012 5.35699987 2.68499994
9.70600033 5.35300016 2.67799997
9.67899990 5.34399986 2.67400002
9.42099953 5.26300001 2.53500009
10.02499962 5.44000006 2.89800000
9.83399963 5.38000011 2.79299998
10.12199974 5.47499990 2.71000004
9.72299957 5.34600019 2.69799995
9.71599960 5.34399986 2.69000006
9.70499992 5.34100008 2.68199992
9.68299961 5.33400011 2.67600012
9.68299961 5.33400011 2.66599989
9.67599964 5.33199978 2.65799999
9.66600037 5.32900000 2.65000010
9.43000031 5.25500011 2.52600002
10.13099957 5.46600008 2.71300006
10.13099957 5.46600008 2.70300007
9.70699978 5.32800007 2.70600009
9.70699978 5.32800007 2.69600010
9.69699955 5.32499981 2.68799996
9.65699959 5.31300020 2.63700008
9.64299965 5.30900002 2.62899995
9.63399982 5.30600023 2.62100005
9.61999989 5.30100012 2.61400008
9.60700035 5.29699993 2.60700011
9.44299984 5.24499989 2.52900004
9.41499996 5.23600006 2.52399993
9.43799973 5.22800016 2.97000003
9.43000031 5.22599983 2.96099997
10.12800026 5.45800018 2.71399999
10.13000011 5.45900011 2.70400000
9.69799995 5.31799984 2.70900011
9.69900036 5.31899977 2.69799995
9.69200039 5.31699991 2.69000006
9.62800026 5.29699993 2.62299991
9.62100029 5.29500008 2.61500001
9.60999966 5.29199982 2.60700011
9.59799957 5.28800011 2.59899998
9.45899963 5.24399996 2.53600001
9.46199989 5.22399998 2.96900010
9.44400024 5.21799994 2.96300006
10.14400005 5.45200014 2.72499990
10.13399982 5.44899988 2.71700001
9.68500042 5.30200005 2.71600008
9.68900013 5.30399990 2.70600009
9.68200016 5.30200005 2.69700003
9.66600037 5.29699993 2.69000006
9.55000019 5.25899982 2.70499992
9.60000038 5.27699995 2.60299993
9.59099960 5.27400017 2.59500003
9.58100033 5.27099991 2.58699989
9.56000042 5.26399994 2.58100009
9.54300022 5.25899982 2.57500005
9.50699997 5.24800014 2.55200005
9.48900032 5.24200010 2.54500008
9.47399998 5.23699999 2.53800011
9.45499992 5.20900011 2.96799994
9.45300007 5.20800018 2.95799994
10.14799976 5.44099998 2.73200011
10.13099957 5.43499994 2.72499990
10.12699986 5.43499994 2.71600008
9.67599964 5.28700018 2.71600008
9.67500019 5.28700018 2.70600009
9.66600037 5.28399992 2.69799995
9.64299965 5.27600002 2.69300008
9.54300022 5.24599981 2.59200001
9.55000019 5.24800014 2.58100009
9.54300022 5.24599981 2.57200003
9.52099991 5.23899984 2.56599998
9.47999954 5.22599983 2.54399991
9.44900036 5.20100021 2.96399999
10.12699986 5.42799997 2.72099996
9.67199993 5.27899981 2.72099996
9.67000008 5.27899981 2.71199989
9.66300011 5.27600002 2.70400000
9.64799976 5.27199984 2.69600010
9.62100029 5.26300001 2.69199991
9.53100014 5.23500013 2.59999990
9.53999996 5.23799992 2.58800006
9.44499969 5.20699978 2.57599998
9.47299957 5.21700001 2.53999996
9.44499969 5.18800020 2.96900010
9.64200020 5.25799990 2.72199988
9.64299965 5.25799990 2.71199989
9.63599968 5.25600004 2.70300007
9.61800003 5.25000000 2.69700003
9.46000004 5.20100021 2.56699991
9.45800018 5.20100021 2.55699992
9.46000004 5.20200014 2.54699993
9.46899986 5.20499992 2.53500009
9.45199966 5.17799997 2.96300006
9.45600033 5.17899990 2.95199990
9.40600014 5.16499996 2.88100004
9.62399960 5.23999977 2.72199988
9.62500000 5.24100018 2.71099997
9.61100006 5.23600006 2.70499992
9.46599960 5.19099998 2.54200006
9.45199966 5.17100000 2.95499992
9.40999985 5.15899992 2.87199998
9.68400002 5.25199986 2.76099992
9.67800045 5.25000000 2.75200009
9.61400032 5.23000002 2.72499990
9.61299992 5.23000002 2.71499991
9.60400009 5.22599983 2.70799994
9.46199989 5.18300009 2.53399992
9.59599972 5.20599985 2.99600005
9.46300030 5.16300011 2.94400001
9.49600029 5.17399979 2.92700005
9.49199963 5.17299986 2.91700006
9.41899967 5.15000010 2.87199998
9.68700027 5.24100018 2.77200007
9.69099998 5.24200010 2.76200008
9.59899998 5.21299982 2.72099996
9.45899963 5.17000008 2.53699994
9.61499977 5.19999981 2.99499989
9.61699963 5.20100021 2.98499990
9.44600010 5.14499998 2.97300005
9.45199966 5.14699984 2.96099997
9.46300030 5.15100002 2.94799995
9.49899960 5.16400003 2.92000008
9.49800014 5.16300011 2.91000009
9.42899990 5.14099979 2.86400008
9.69799995 5.23199987 2.77399993
9.68999958 5.23000002 2.76500010
9.59099960 5.19799995 2.72600007
9.58399963 5.19600010 2.71799994
9.45300007 5.15600014 2.53200006
9.61999989 5.19600010 2.99499989
9.44499969 5.13800001 2.97399998
9.45499992 5.14200020 2.96099997
9.49800014 5.15700006 2.91000009
9.49699974 5.15700006 2.90000010
9.42899990 5.13500023 2.86400008
9.70199966 5.22800016 2.77399993
9.69600010 5.22599983 2.76500010
9.58199978 5.18800020 2.74900007
9.57900047 5.18800020 2.72000003
9.44999981 5.14900017 2.53299999
9.63000011 5.18699980 2.99600005
9.62600040 5.18499994 2.98699999
9.45600033 5.12799978 3.00600004
9.45100021 5.12699986 2.99699998
9.43599987 5.12200022 2.99000001
9.42399979 5.11800003 2.98300004
9.50399971 5.14599991 2.90300012
9.49899960 5.14499998 2.89299989
9.71000004 5.21799994 2.77600002
9.70199966 5.21500015 2.76699996
9.57299995 5.17299986 2.75500011
9.57100010 5.17199993 2.72499990
9.62300014 5.17100000 2.99499989
9.47399998 5.12099981 3.00900006
9.40799999 5.09999990 2.98300004
9.48999977 5.12799978 2.93400002
9.50199986 5.13299990 2.89000010
9.49600029 5.13100004 2.88100004
9.71399975 5.20599985 2.77200007
9.54899979 5.15100002 2.76699996
9.56299973 5.15600014 2.75399995
9.56299973 5.15700006 2.73399997
9.62100029 5.16400003 2.99799991
9.47599983 5.11499977 3.01099992
9.52700043 5.13399982 2.94799995
9.39900017 5.09000015 2.96700001
9.49300003 5.12300014 2.92499995
9.50699997 5.12799978 2.89100003
9.50000000 5.12599993 2.88299990
9.49699974 5.12500000 2.87299991
9.48799992 5.12200022 2.86500001
9.47500038 5.11800003 2.85700011
9.54399967 5.14300013 2.77099991
9.55599976 5.14699984 2.75799990
9.62199974 5.15199995 2.98900008
9.56900024 5.13500023 2.95000005
9.55399990 5.13000011 2.94300008
9.52900028 5.12200022 2.93899989
9.49699974 5.11199999 2.91499996
9.51299953 5.11800003 2.90199995
9.48200035 5.10799980 2.86700010
9.48600006 5.10900021 2.85599995
9.48499966 5.10900021 2.84599996
9.48400021 5.10900021 2.83599997
9.50500011 5.11700010 2.79099989
9.53199959 5.12599993 2.77500010
9.55000019 5.13299990 2.76099992
9.54300022 5.13100004 2.74099994
9.61999989 5.13999987 2.98399997
9.59899998 5.13299990 2.97900009
9.59799957 5.13299990 2.96900010
9.59300041 5.13199997 2.96000004
9.57999992 5.12799978 2.95300007
9.57299995 5.12500000 2.94400001
9.81599998 5.20900011 2.85899997
9.79100037 5.19999981 2.85400009
9.49300003 5.09899998 2.90100002
9.48999977 5.09800005 2.89100003
9.48700047 5.09700012 2.88199997
9.48299980 5.09700012 2.87199998
9.48499966 5.09700012 2.86199999
9.73400021 5.18300009 2.76600003
9.61400032 5.13199997 2.97799993
9.60599995 5.12900019 2.96900010
9.59899998 5.12699986 2.96099997
9.82299995 5.20499992 2.85899997
9.49699974 5.09399986 2.89199996
9.48700047 5.09100008 2.88400006
9.48600006 5.09100008 2.87400007
9.73799992 5.17799997 2.76699996
9.51500034 5.10300016 2.74499989
9.62199974 5.12200022 2.98000002
9.53499985 5.09399986 2.90899992
9.76399994 5.17299986 2.83599997
9.49499989 5.08099985 2.87700009
9.74800014 5.16900015 2.77999997
9.74699974 5.16900015 2.76999998
9.74699974 5.16900015 2.75999999
9.51799965 5.09100008 2.77900004
9.52000046 5.09200001 2.76900005
9.62699986 5.11199999 2.97600007
9.54399967 5.08500004 2.90400004
9.76099968 5.16099977 2.83500004
9.75599957 5.15999985 2.79500008
9.75300026 5.15899992 2.78600001
9.75699997 5.16099977 2.77500010
9.75500011 5.15999985 2.75500011
9.75800037 5.16200018 2.74499989
9.51599979 5.07900000 2.77699995
9.51700020 5.07900000 2.76600003
9.64000034 5.11000013 2.98699999
9.63000011 5.10699987 2.97900009
9.54800034 5.08099985 2.90599990
9.76000023 5.15399981 2.81800008
9.75399971 5.15299988 2.80900002
9.75500011 5.15299988 2.79900002
9.75300026 5.15299988 2.78900003
9.75899982 5.15500021 2.74799991
9.50899982 5.07000017 2.77099991
9.48400021 5.06199980 2.74600005
9.63799953 5.09600019 3.01300001
9.64000034 5.09700012 3.00300002
9.64200020 5.09800005 2.99200010
9.64000034 5.09700012 2.98200011
9.55599976 5.07000017 2.91000009
9.55900002 5.07100010 2.89899993
9.49699974 5.05299997 2.77999997
9.50300026 5.05499983 2.76799989
9.48400021 5.04899979 2.74200010
9.48099995 5.04899979 2.73200011
9.64700031 5.08799982 2.97700000
9.56200027 5.06099987 2.90499997
9.56000042 5.05999994 2.89499998
9.48700047 5.03700018 2.77800012
9.48700047 5.03800011 2.74799991
9.48700047 5.03800011 2.73799992
9.65299988 5.08400011 2.97700000
9.56200027 5.05399990 2.89599991
9.65400028 5.07100010 2.98000002
9.56999969 5.04400015 2.89800000
9.48299980 5.01700020 2.76300001
8.29399967 6.06099987 3.02900004
8.29500008 6.04799986 3.02500010
8.30200005 6.04400015 3.03500009
9.16499996 6.10200024 2.42300010
9.25000000 6.11199999 2.45499992
9.18500042 6.09600019 2.42700005
9.17700005 6.09399986 2.41799998
9.24600029 6.10300016 2.45799994
9.22000027 6.09700012 2.45300007
9.20800018 6.09399986 2.44499993
9.19699955 6.09100008 2.43700004
9.19499969 6.09100008 2.42700005
9.27999973 6.09999990 2.47399998
9.21599960 6.08400011 2.45600009
9.27799988 6.08799982 2.48099995
9.21399975 6.07200003 2.45300007
9.28400040 6.08199978 2.47900009
9.21899986 6.06599998 2.46199989
9.21700001 6.06500006 2.45099998
9.28699970 6.07100010 2.49200010
9.29199982 6.07299995 2.48099995
9.22099972 6.05499983 2.45300007
9.21700001 6.05399990 2.44400001
9.21399975 6.04199982 2.44300008
9.21100044 6.03499985 2.44799995
9.22399998 6.03800011 2.43499994
8.55700016 5.83799982 3.02300000
8.55500031 5.83799982 3.01300001
9.22999954 6.02699995 2.43799996
8.58199978 5.83300018 3.01699996
8.54699993 5.82399988 3.01399994
8.43099976 5.79400015 2.98600006
8.43099976 5.79400015 2.97499990
8.54800034 5.81799984 3.01799989
8.53499985 5.81400013 3.00999999
8.43000031 5.78700018 2.97799993
8.40200043 5.76700020 2.96700001
8.52200031 5.78499985 3.01300001
8.23400021 5.60900021 2.75500011
8.93999958 5.78299999 3.02600002
8.22500038 5.59299994 2.74799991
8.94699955 5.77199984 3.02600002
8.23099995 5.58099985 2.74699998
8.23799992 5.57600021 2.75099993
8.94699955 5.75400019 3.02500010
8.24400043 5.56400013 2.76600003
8.23600006 5.56300020 2.75600004
8.23999977 5.55000019 2.75500011
8.23700047 5.54300022 2.75699997
8.24199963 5.53200006 2.75799990
8.96300030 5.71500015 3.01200008
8.68000031 5.63700008 2.95700002
8.24699974 5.51999998 2.75500011
8.68000031 5.63000011 2.96099997
8.25100040 5.51399994 2.74699998
8.95600033 5.69399977 3.00999999
8.92800045 5.68699980 2.97499990
8.91899967 5.68400002 2.96700001
8.67899990 5.61700010 2.96600008
8.67300034 5.61600018 2.95600009
8.47700024 5.56300020 2.81500006
8.27299976 5.50699997 2.75799990
8.26700020 5.50600004 2.74799991
8.95699978 5.68200016 3.00900006
8.93900013 5.67700005 2.98200011
8.67199993 5.60300016 2.95499992
8.47399998 5.55000019 2.81399989
8.46199989 5.54699993 2.80599999
8.30300045 5.50199986 2.79399991
8.30799961 5.50400019 2.78200006
8.31799984 5.50699997 2.76900005
8.29500008 5.50000000 2.76399994
8.28400040 5.49800014 2.75500011
8.28999996 5.50000000 2.74200010
8.95600033 5.67500019 3.01200008
8.95800018 5.67500019 3.00099993
8.94299984 5.67100000 2.98300004
8.67399979 5.59600019 2.94700003
8.48499966 5.54400015 2.89000010
8.47900009 5.54400015 2.81599998
8.44299984 5.53399992 2.81200004
8.38700008 5.51800013 2.79099989
8.37600040 5.51499987 2.78299999
8.35400009 5.50899982 2.77600002
8.32800007 5.50199986 2.76999998
8.30099964 5.49499989 2.76500010
8.28499985 5.48999977 2.75699997
8.27400017 5.48699999 2.74799991
8.95899963 5.66300011 3.00399995
8.95300007 5.66200018 2.99399996
8.66499996 5.58099985 2.95099998
8.49899960 5.53499985 2.89000010
8.48900032 5.53399992 2.81599998
8.43799973 5.51999998 2.81599998
8.43599987 5.51900005 2.80500007
8.42199993 5.51499987 2.79699993
8.40699959 5.51100016 2.78900003
8.31900024 5.48699999 2.77399993
8.31200027 5.48500013 2.76500010
8.27099991 5.47399998 2.75099993
8.96399975 5.65199995 3.00799990
8.96000004 5.65100002 2.99900007
8.66300011 5.56799984 2.95799994
8.51599979 5.52799988 2.88199997
8.50599957 5.52600002 2.82999992
8.49600029 5.52299976 2.82100010
8.47200012 5.51700020 2.81500006
8.45899963 5.51300001 2.80699992
8.30500031 5.46999979 2.77200007
8.26099968 5.45800018 2.74799991
8.96700001 5.64599991 3.00699997
8.96199989 5.64499998 2.99799991
8.66699982 5.56199980 2.95700002
8.52799988 5.52500010 2.83500004
8.51399994 5.52099991 2.82800007
8.49499989 5.51499987 2.82100010
8.48099995 5.51200008 2.81299996
8.45499992 5.50400019 2.80699992
8.29699993 5.46000004 2.77300000
8.22900009 5.44099998 2.77600002
8.23600006 5.44299984 2.76399994
8.25300026 5.44799995 2.75000000
8.96399975 5.63199997 3.00099993
8.66800022 5.54899979 2.94899988
8.30099964 5.44799995 2.77600002
8.23799992 5.42999983 2.76600003
8.24400043 5.43200016 2.75399995
8.23600006 5.42999983 2.74499989
8.22599983 5.42700005 2.73600006
8.96800041 5.62200022 3.00600004
8.96300030 5.62099981 2.99699998
8.67300034 5.53900003 2.95400000
8.30300045 5.43599987 2.78200006
8.24400043 5.42000008 2.77200007
8.96700001 5.61499977 2.99900007
8.68200016 5.53399992 2.95499992
8.98600006 5.60799980 3.01900005
8.97500038 5.60500002 3.00999999
8.96899986 5.60300016 3.00099993
8.97000027 5.60400009 2.99000001
8.97399998 5.59200001 3.00600004
8.97000027 5.59100008 2.99600005
8.97399998 5.58599997 3.00900006
8.97099972 5.58500004 2.99799991
9.01200008 5.27199984 2.81399989
8.98499966 5.25099993 2.81500006
8.94299984 5.23799992 2.80299997
8.97599983 5.24200010 2.81900001
8.93700027 5.23000002 2.79500008
8.93599987 5.23000002 2.78500009
8.91199970 5.20800018 2.83599997
8.91100025 5.20800018 2.82599998
8.93900013 5.21799994 2.78800011
8.92700005 5.21400023 2.77999997
8.92300034 5.21299982 2.77099991
8.91699982 5.21099997 2.76099992
8.88700008 5.18800020 2.82999992
8.83500004 5.17199993 2.81999993
8.91600037 5.19799995 2.75999999
8.90799999 5.19600010 2.75200009
8.90200043 5.19399977 2.74200010
8.87899971 5.17899990 2.82699990
8.89200020 5.18499994 2.73000002
8.88199997 5.18200016 2.72099996
8.87600040 5.16699982 2.71700001
8.86499977 5.16300011 2.70900011
9.44999981 4.96099997 2.80100012
9.43299961 4.95599985 2.75300002
9.56200027 4.99200010 2.88599992
9.56499958 4.99399996 2.87599993
9.42000008 4.94399977 2.85599995
9.44799995 4.95400000 2.80900002
9.45199966 4.95599985 2.79800010
9.43099976 4.94999981 2.76099992
9.42300034 4.94700003 2.75300002
9.56400013 4.98099995 2.87100005
9.44799995 4.94099998 2.82500005
9.44799995 4.94199991 2.81500006
9.44799995 4.94199991 2.80500007
9.56799984 4.96999979 2.86700010
9.55300045 4.96500015 2.85999990
9.30000019 4.97499990 2.74600005
9.31299973 4.97200012 2.75399995
9.30799961 4.96999979 2.74600005
9.31799984 4.96000004 2.76799989
9.31799984 4.96000004 2.75699997
9.32600021 4.94899988 2.83400011
9.32299995 4.94899988 2.75099993
9.32499981 4.94399977 2.75300002
9.32800007 4.93200016 2.75600004
9.34300041 4.93800020 2.74300003
9.37300014 4.93599987 2.74600005
9.41699982 4.94299984 2.84699988
9.39400005 4.93699980 2.74900007
9.38099957 4.93300009 2.74099994
9.43200016 4.93499994 2.83899999
9.41800022 4.93200016 2.76999998
9.42000008 4.93300009 2.75900006
9.41199970 4.93100023 2.75099993
9.44699955 4.92899990 2.83200002
9.44600010 4.92799997 2.82200003
9.40799999 4.91599989 2.76900005
9.40799999 4.91699982 2.75900006
9.39900017 4.91400003 2.75000000
9.22000027 4.85099983 2.77699995
9.20100021 4.84399986 2.77099991
9.44699955 4.92199993 2.83500004
9.43999958 4.91900015 2.82599998
9.24100018 4.84999990 2.83899999
9.24800014 4.85300016 2.82699990
9.39599991 4.90500021 2.77399993
9.40200043 4.90799999 2.76200008
9.39799976 4.90600014 2.75300002
9.37699986 4.88399982 2.88499999
9.37500000 4.88299990 2.87500000
9.37399960 4.88399982 2.86500001
9.45100021 4.91099977 2.83800006
9.45199966 4.91099977 2.82699990
9.25699997 4.84299994 2.83800006
9.25800037 4.84299994 2.82800007
9.38899994 4.89099979 2.76900005
9.39099979 4.89099979 2.75799990
9.38300037 4.88899994 2.74900007
9.45300007 4.89799976 2.84500003
9.44900036 4.89699984 2.83500004
9.25899982 4.82999992 2.84500003
9.27799988 4.83699989 2.83100009
9.38000011 4.87400007 2.76699996
9.38199997 4.87500000 2.75600004
9.37100029 4.87099981 2.74799991
9.45400047 4.89200020 2.84599996
9.45300007 4.89200020 2.83599997
9.27799988 4.82999992 2.85299993
9.28299999 4.83300018 2.84200001
9.28299999 4.83300018 2.83100009
9.37399960 4.86600018 2.76999998
9.38000011 4.86800003 2.75900006
9.37100029 4.86499977 2.75000000
9.35400009 4.85900021 2.74300003
9.39200020 4.85500002 2.99900007
9.45800018 4.88199997 2.84899998
9.45100021 4.87900019 2.83999991
9.28499985 4.82000017 2.86599994
9.30200005 4.82700014 2.84200001
9.30300045 4.82700014 2.83100009
9.38300037 4.85699987 2.76200008
9.36100006 4.84899998 2.75600004
9.35299969 4.84600019 2.74799991
9.41499996 4.84899998 3.00099993
9.46199989 4.86899996 2.85500002
9.46300030 4.86999989 2.84500003
9.31400013 4.81699991 2.83599997
9.38899994 4.84499979 2.76799989
9.36800003 4.83799982 2.76200008
9.35099983 4.83199978 2.75500011
9.34399986 4.82999992 2.74600005
9.32999992 4.82499981 2.73900008
9.43000031 4.84800005 3.00799990
9.42199993 4.84600019 3.00000000
9.46300030 4.86299992 2.85599995
9.46599960 4.86499977 2.84500003
9.32199955 4.81400013 2.83500004
9.39099979 4.84000015 2.76799989
9.36999989 4.83199978 2.76300001
9.34700012 4.82399988 2.75699997
9.34099960 4.82200003 2.74799991
9.32900047 4.81799984 2.74000001
9.43200016 4.83699989 3.01099992
9.43799973 4.84000015 2.99900007
9.44400024 4.84200001 2.98699999
9.46800041 4.85300016 2.85800004
9.46500015 4.85200024 2.84800005
9.33300018 4.80600023 2.83500004
9.38300037 4.82499981 2.78299999
9.39700031 4.82999992 2.76999998
9.28400040 4.78999996 2.78299999
9.33399963 4.80800009 2.76300001
9.33800030 4.80999994 2.75099993
9.32900047 4.80600023 2.74300003
9.30700016 4.79899979 2.73699999
9.44699955 4.82999992 2.99200010
9.44799995 4.83099985 2.98099995
9.47200012 4.84200001 2.86199999
9.47099972 4.84200001 2.85200000
9.34500027 4.79699993 2.83800006
9.34300041 4.79699993 2.82800007
9.37500000 4.80900002 2.79999995
9.37800026 4.80999994 2.78999996
9.40999985 4.82200003 2.76200008
9.27999973 4.77500010 2.77900004
9.32600021 4.79199982 2.75900006
9.32800007 4.79300022 2.74799991
9.32100010 4.79099989 2.74000001
9.31400013 4.78800011 2.73099995
9.45300007 4.82600021 2.99099994
9.45100021 4.82499981 2.98099995
9.47500038 4.83599997 2.86199999
9.34899998 4.79199982 2.82800007
9.36200047 4.79699993 2.81399989
9.36900043 4.80000019 2.80299997
9.41499996 4.81699991 2.76200008
9.28299999 4.76999998 2.77999997
9.32100010 4.78299999 2.76099992
9.32499981 4.78499985 2.74900007
9.32100010 4.78399992 2.74000001
9.31400013 4.78200006 2.73099995
9.31000042 4.78000021 2.72199988
9.46399975 4.81799984 2.98200011
9.46000004 4.81599998 2.97300005
9.47500038 4.82399988 2.87599993
9.47399998 4.82399988 2.86599994
9.10099983 4.69000006 2.86400008
9.08899975 4.68599987 2.85599995
9.08800030 4.68599987 2.84599996
9.42099953 4.80700016 2.76399994
9.29399967 4.76100016 2.78099990
9.29199982 4.76100016 2.77099991
9.30900002 4.76700020 2.75699997
9.31299973 4.76900005 2.74600005
9.30399990 4.76599979 2.73699999
9.31200027 4.76900005 2.72499990
9.31400013 4.76900005 2.71399999
9.30799961 4.76800013 2.70499992
9.46500015 4.80499983 2.97099996
9.48400021 4.81400013 2.88400006
9.48099995 4.81300020 2.87500000
9.48299980 4.81400013 2.86400008
9.09200001 4.67500019 2.84400010
9.42800045 4.79699993 2.76200008
9.30099964 4.75099993 2.75799990
9.30300045 4.75199986 2.74699998
9.29899979 4.75099993 2.73799992
9.28499985 4.74599981 2.73000002
9.31499958 4.75699997 2.71399999
9.31099987 4.75600004 2.70400000
9.30700016 4.75500011 2.69400001
9.46800041 4.80000019 2.97499990
9.47000027 4.80100012 2.96399999
9.48200035 4.80700016 2.88899994
9.48299980 4.80800009 2.87800002
9.48200035 4.80700016 2.86800003
9.29599953 4.74300003 2.75300002
9.29800034 4.74399996 2.74200010
9.29100037 4.74200010 2.73300004
9.28199959 4.73799992 2.72499990
9.30700016 4.74800014 2.69899988
9.30200005 4.74700022 2.68899989
9.47700024 4.79099989 2.96799994
9.48499966 4.79400015 2.95600009
9.49800014 4.80000019 2.91100001
9.49800014 4.80000019 2.90100002
9.49300003 4.79799986 2.89199996
9.48299980 4.79400015 2.88400006
9.48200035 4.79400015 2.87400007
9.08600044 4.65299988 2.84500003
9.28800011 4.72700024 2.74900007
9.28699970 4.72700024 2.73900008
9.28299999 4.72599983 2.73000002
9.27299976 4.72200012 2.72199988
9.31099987 4.73600006 2.69300008
9.30099964 4.73400021 2.68400002
9.14099979 4.67500019 2.69700003
9.49199963 4.78399992 2.95199990
9.50300026 4.78800011 2.93899989
9.51700020 4.79300022 2.92499995
9.51099968 4.79099989 2.91700006
9.50300026 4.78900003 2.90799999
9.47999954 4.78100014 2.88199997
9.09300041 4.64200020 2.84100008
9.08500004 4.63899994 2.83200002
9.28400040 4.71299982 2.74799991
9.28299999 4.71299982 2.73799992
9.27999973 4.71199989 2.72799993
9.26299953 4.70599985 2.72099996
9.29399967 4.71799994 2.67300010
9.27299976 4.71000004 2.66700006
9.51900005 4.78700018 2.92799997
9.51599979 4.78599977 2.91899991
9.48099995 4.77400017 2.88599992
9.48200035 4.77500010 2.87500000
9.09300041 4.63500023 2.83400011
9.08800030 4.63299990 2.82500005
9.27299976 4.70200014 2.74399996
9.27499962 4.70300007 2.73300004
9.26799965 4.70100021 2.72399998
9.25300026 4.69600010 2.71600008
9.15200043 4.65899992 2.71600008
9.28800011 4.70900011 2.66700006
9.53100014 4.77899981 2.93199992
9.47700024 4.76000023 2.88199997
9.09500027 4.62300014 2.83999991
9.09899998 4.62500000 2.82900000
9.09500027 4.62300014 2.81900001
9.07999992 4.61800003 2.81200004
9.06000042 4.61100006 2.80500007
9.06099987 4.61100006 2.79399991
9.25699997 4.68400002 2.74300003
