14.31099987 16.02599907 9.32699966
14.31299973 16.02599907 9.31400013
14.31200027 16.02599907 9.29800034
14.35099983 16.03199959 9.28999996
14.37399960 16.03300095 9.03699970
14.57600021 16.06500053 9.08600044
14.57199955 16.06399918 9.06999969
14.56599998 16.06299973 9.05200005
14.47799969 16.04899979 8.97399998
14.49600029 16.05100060 8.97000027
14.33800030 16.02599907 8.85499954
14.37399960 16.03199959 8.86100006
14.39999962 16.03599930 8.85999966
14.40900040 16.03700066 8.84899998
14.41199970 16.03700066 8.83600044
14.41499996 16.03700066 8.82299995
14.41699982 16.03800011 8.81000042
14.42000008 16.03800011 8.79699993
14.42599964 16.03899956 8.78600025
14.43299961 16.04000092 8.77499962
14.43900013 16.04100037 8.76299953
14.37899971 16.03100014 8.68799973
14.71000004 16.08300018 8.71399975
14.71100044 16.08300018 8.70100021
14.31000042 16.03199959 9.29599953
14.35299969 16.03800011 9.28999996
14.58300018 16.07299995 9.10499954
14.57800007 16.07200050 9.08699989
14.47700024 16.05500031 8.95899963
14.34399986 16.03300095 8.85799980
14.39999962 16.04199982 8.87300014
14.39599991 16.04100037 8.85700035
14.40499973 16.04299927 8.84700012
14.41199970 16.04400063 8.83600044
14.41399956 16.04400063 8.82199955
14.42000008 16.04500008 8.81099987
14.42599964 16.04500008 8.79899979
14.44600010 16.04800034 8.77999973
14.45300007 16.04999924 8.77000046
14.37699986 16.03700066 8.70100021
14.37399960 16.03700066 8.68500042
14.72700024 16.09199905 8.73700047
14.71399975 16.09000015 8.71599960
14.31200027 16.04500008 9.28800011
14.35200024 16.05100060 9.29500008
14.35700035 16.05200005 9.28299999
14.57999992 16.08499908 9.12199974
14.58300018 16.08600044 9.10999966
14.40200043 16.05599976 8.92300034
14.39799976 16.05500031 8.90600014
14.40100002 16.05500031 8.87800026
14.40299988 16.05500031 8.86600018
14.40799999 16.05599976 8.85299969
14.40999985 16.05599976 8.84000015
14.41800022 16.05699921 8.82900047
14.42599964 16.05900002 8.81900024
14.46000004 16.06399918 8.77799988
14.37100029 16.04899979 8.71700001
14.36800003 16.04800034 8.67199993
14.34700012 16.06399918 9.29199982
14.37500000 16.06599998 9.02600002
14.39900017 16.06999969 8.95100021
14.39099979 16.06800079 8.93099976
14.39099979 16.06800079 8.91699982
14.39000034 16.06800079 8.90200043
14.39000034 16.06800079 8.88700008
14.40200043 16.06900024 8.87899971
14.41100025 16.07099915 8.86900043
14.41499996 16.07099915 8.85700035
14.42000008 16.07200050 8.84500027
14.46100044 16.07799911 8.77900028
14.35999966 16.06100082 8.66800022
14.36400032 16.07500076 9.37800026
14.32499981 16.06800079 9.28100014
14.37600040 16.07399940 9.02700043
14.39799976 16.07699966 8.96599960
14.39000034 16.07600021 8.94699955
14.38799953 16.07500076 8.91699982
14.35000038 16.06900024 8.88199997
14.39700031 16.07600021 8.89200020
14.40499973 16.07799911 8.88199997
14.41199970 16.07900047 8.87100029
14.46399975 16.08600044 8.78100014
14.35299969 16.06800079 8.66600037
14.37800026 16.08799934 9.02099991
14.38399982 16.08799934 9.01000023
14.38500023 16.08900070 8.99600029
14.38399982 16.08799934 8.98099995
14.38199997 16.08799934 8.96500015
14.37899971 16.08699989 8.94799995
14.38300037 16.08799934 8.93500042
14.38599968 16.08799934 8.92199993
14.39000034 16.08900070 8.90999985
14.40499973 16.09099960 8.90400028
14.40999985 16.09199905 8.89099979
14.46100044 16.09900093 8.78699970
14.35499954 16.08099937 8.65900040
14.37199974 16.10000038 9.00000000
14.37300014 16.10000038 8.98600006
14.37699986 16.10099983 8.97299957
14.37800026 16.10099983 8.95899963
14.38000011 16.10099983 8.94499969
14.38399982 16.10199928 8.93299961
14.39400005 16.10300064 8.92399979
14.40200043 16.10400009 8.91300011
14.45600033 16.11199951 8.78100014
14.36100006 16.09600067 8.65900040
14.37399960 16.10899925 9.03100014
14.37100029 16.10899925 9.01500034
14.36900043 16.10799980 8.99899960
14.37199974 16.10899925 8.98600006
14.37600040 16.10899925 8.97299957
14.37699986 16.10899925 8.95899963
14.38000011 16.11000061 8.94499969
14.38399982 16.11000061 8.93400002
14.40400028 16.11199951 8.75399971
14.36100006 16.10400009 8.65900040
14.35900021 16.12100029 9.05700016
14.35999966 16.12100029 9.04199982
14.36200047 16.12100029 9.02900028
14.36400032 16.12100029 9.01500034
14.36699963 16.12199974 9.00199986
14.36900043 16.12199974 8.98799992
14.37500000 16.12199974 8.97700024
14.38399982 16.12400055 8.96700001
14.35099983 16.13199997 9.05200005
14.35700035 16.13299942 9.03999996
14.35999966 16.13400078 9.02799988
14.36299992 16.13400078 9.01399994
14.36800003 16.13500023 9.00199986
14.37600040 16.13599968 8.99199963
14.34300041 16.14100075 9.24199963
14.35599995 16.14399910 9.23499966
14.36200047 16.14399910 9.22299957
14.36400032 16.14399910 9.20899963
14.36400032 16.14500046 9.19400024
14.35900021 16.14399910 9.17700005
14.35700035 16.14200020 9.02799988
14.36200047 16.14299965 9.01599979
14.34700012 16.15299988 9.05700016
14.34899998 16.16600037 9.07100010
14.36100006 16.16799927 9.06299973
14.35400009 16.17600060 9.08899975
14.50100040 16.19799995 8.78600025
14.48499966 16.20800018 8.81200027
14.52099991 16.21400070 8.78699970
14.48099995 16.22100067 8.83800030
14.52400017 16.22800064 8.78699970
14.53400040 16.22900009 8.77799988
14.36100006 16.20000076 8.64400005
14.47799969 16.22900009 8.84000015
14.54100037 16.25300026 8.77600002
14.53999996 16.26600075 8.77400017
14.53400040 16.27300072 8.77200031
14.52400017 16.28499985 8.77099991
14.49600029 16.29500008 8.76900005
14.48900032 16.30100060 8.76700020
14.52299976 16.30699921 8.77000046
14.51599979 16.31900024 8.76900005
14.51000023 16.33900070 8.77099991
14.50899982 16.35300064 8.77799988
14.47200012 16.36000061 8.76900005
14.46899986 16.36599922 8.76700020
13.98600006 16.06599998 9.67700005
13.98600006 16.07900047 9.67700005
13.79300022 16.11300087 9.51200008
13.80500031 16.12199974 9.50800037
13.80700016 16.13599968 9.50100040
13.81900024 16.13800049 9.49300003
13.74800014 16.13800049 9.44900036
13.77900028 16.15099907 9.45400047
13.77900028 16.17900085 9.48600006
14.39400005 15.85700035 8.44600010
14.39900017 15.85799980 8.43400002
14.40299988 15.85799980 8.42199993
14.33899975 15.85700035 8.53600025
14.34700012 15.85799980 8.52700043
14.35999966 15.85999966 8.51799965
14.36800003 15.86100006 8.50800037
14.38199997 15.86299992 8.50100040
14.38799953 15.86400032 8.48999977
14.39700031 15.86499977 8.47999954
14.39700031 15.86499977 8.46599960
14.40100002 15.86499977 8.45300007
14.40799999 15.86600018 8.44299984
14.31400013 15.86800003 8.55900002
14.32100010 15.86900043 8.54800034
14.40999985 15.88099957 8.50800037
14.40799999 15.88099957 8.49300003
14.23999977 15.87699986 9.36499977
14.24699974 15.88399982 9.37100029
14.26500034 15.88199997 8.76399994
14.30099964 15.90200043 8.79100037
14.26200008 16.09700012 9.70100021
14.25300026 16.10899925 9.69999981
13.99499989 16.07999992 9.66699982
14.04100037 16.08699989 9.57400036
14.02999973 16.08499908 9.55300045
14.27600002 16.12400055 9.48600006
13.99100018 16.08799934 9.66699982
14.05599976 16.09799957 9.58500004
14.28199959 16.13400078 9.47599983
13.98499966 16.10000038 9.66899967
14.18400002 16.13199997 9.71199989
14.18799973 16.13299942 9.69999981
14.28100014 16.14599991 9.46700001
13.97900009 16.11100006 9.66399956
14.19799995 16.14699936 9.70300007
14.27700043 16.15800095 9.46199989
14.28800011 16.15999985 9.45300007
13.97500038 16.11899948 9.66199970
14.20699978 16.15699959 9.69400024
14.23900032 16.16200066 9.68200016
14.05700016 16.13100052 9.56000042
14.06299973 16.13199997 9.54899979
14.11600018 16.15600014 9.82800007
13.97299957 16.13100052 9.65100002
14.21500015 16.17099953 9.68999958
14.23200035 16.17399979 9.68400002
14.05399990 16.14299965 9.54899979
14.06499958 16.14500046 9.54100037
14.11699963 16.16900063 9.82699966
13.96000004 16.14100075 9.64200020
13.96500015 16.14200020 9.63000011
14.30599976 16.20000076 9.77200031
14.30099964 16.19899940 9.75399971
14.23299980 16.18700027 9.68299961
14.06999969 16.15900040 9.52600002
14.11400032 16.17700005 9.82800007
14.12800026 16.17900085 9.82100010
13.96500015 16.14999962 9.63300037
14.27900028 16.20299911 9.74400043
14.23299980 16.19499969 9.68599987
14.06400013 16.16600037 9.52700043
14.06599998 16.16600037 9.51299953
14.29500008 16.20400047 9.49600029
14.27999973 16.20100021 9.41199970
14.27700043 16.20000076 9.39500046
14.13300037 16.19400024 9.83100033
14.13300037 16.19400024 9.81599998
13.93999958 16.15900040 9.62500000
13.96300030 16.16300011 9.62399960
13.97000027 16.16399956 9.61299992
14.25000000 16.21199989 9.70300007
14.23600006 16.20899963 9.68000031
14.06799984 16.18000031 9.50599957
14.07199955 16.18000031 9.49300003
14.28299999 16.21500015 9.48099995
13.93000031 16.17200089 9.75199986
13.92700005 16.17099953 9.73600006
13.93000031 16.17200089 9.72200012
13.92899990 16.17200089 9.70699978
14.13799953 16.20700073 9.80200005
13.95300007 16.17499924 9.63099957
13.95800018 16.17499924 9.61900043
13.97000027 16.17700005 9.61100006
13.84000015 16.15399933 9.47399998
14.23600006 16.22299957 9.69299984
14.23600006 16.22299957 9.67800045
14.07100010 16.19300079 9.48999977
14.07499981 16.19400024 9.47799969
14.27499962 16.22699928 9.47399998
14.18200016 16.21100044 9.40600014
13.92599964 16.17900085 9.75100040
13.86999989 16.16900063 9.68700027
13.92800045 16.17900085 9.69200039
13.93599987 16.18000031 9.65200043
13.94200039 16.18099976 9.64000034
13.94799995 16.18199921 9.62899971
13.95600033 16.18300056 9.61900043
13.96700001 16.18499947 9.61100006
13.97099972 16.18499947 9.59799957
13.83699989 16.16099930 9.47299957
14.23400021 16.22999954 9.67800045
14.07299995 16.20100021 9.47799969
14.08199978 16.20299911 9.46800041
14.08600044 16.20299911 9.45600033
14.08500004 16.20299911 9.43999958
14.10400009 16.20599937 9.43599987
14.22900009 16.22800064 9.47900009
14.17199993 16.21699905 9.41499996
14.17099953 16.21699905 9.40100002
13.88399982 16.18499947 9.68500042
13.89500046 16.18600082 9.67700005
13.90600014 16.18799973 9.66800022
14.13399982 16.22800064 9.77499962
13.94299984 16.19400024 9.64599991
13.96899986 16.19799995 9.60000038
13.97500038 16.19899940 9.58899975
13.81299973 16.17099953 9.46300030
13.84500027 16.17600060 9.46700001
14.05599976 16.21299934 9.56299973
14.06700039 16.21400070 9.55399990
14.07400036 16.21500015 9.54300022
14.08199978 16.21699905 9.53299999
14.09000015 16.21800041 9.52200031
14.09599972 16.21899986 9.51099968
14.10400009 16.21999931 9.50000000
14.11499977 16.22200012 9.49199963
14.12100029 16.22299957 9.47999954
14.12399960 16.22299957 9.46700001
14.13000011 16.22400093 9.45600033
14.13399982 16.22500038 9.44299984
14.14000034 16.22599983 9.43200016
14.15100002 16.22699928 9.42300034
14.15699959 16.22900009 9.41199970
14.16100025 16.22900009 9.39900017
14.12500000 16.24099922 9.82800007
14.13000011 16.24099922 9.81599998
14.14099979 16.24300003 9.80700016
14.14500046 16.24399948 9.79500008
14.15200043 16.24500084 9.78400040
14.15900040 16.24600029 9.77200031
13.79300022 16.18099976 9.47900009
13.89200020 16.19700050 9.46300030
14.05399990 16.22599983 9.54399967
14.07199955 16.22900009 9.53999996
14.04899979 16.22500038 9.51099968
14.05900002 16.22599983 9.50199986
14.08199978 16.22999954 9.50100040
14.10200024 16.23399925 9.49699974
14.12300014 16.23699951 9.47999954
14.13300037 16.23800087 9.45499992
14.16499996 16.24399948 9.45899963
14.16399956 16.24399948 9.44299984
14.15799999 16.24300003 9.42500019
14.15799999 16.24200058 9.41100025
14.16300011 16.24300003 9.39799976
13.87300014 16.20700073 10.05700016
14.12199974 16.24699974 9.82900047
14.15600014 16.25300026 9.77200031
14.16800022 16.25399971 9.76399994
13.77900028 16.18499947 9.48700047
13.99100018 16.22299957 9.56799984
13.99600029 16.22299957 9.55700016
13.93999958 16.21299934 9.47799969
14.01000023 16.22500038 9.48999977
14.05599976 16.23299980 9.50199986
14.07699966 16.23699951 9.50000000
14.15699959 16.25000000 9.47000027
14.16100025 16.25000000 9.45899963
14.15999985 16.25000000 9.44200039
14.15900040 16.25000000 9.42700005
14.16300011 16.25000000 9.41399956
14.16800022 16.25099945 9.40200043
13.87899971 16.22100067 10.05000019
13.93099976 16.22599983 9.62600040
14.18099976 16.27000046 9.74499989
14.18599987 16.27000046 9.73299980
13.86299992 16.21299934 9.51099968
13.86800003 16.21400070 9.49899960
14.05500031 16.24699974 9.56499958
13.97799969 16.23299980 9.48999977
13.99499989 16.23500061 9.48499966
14.15100002 16.26199913 9.50100040
14.15299988 16.26300049 9.48700047
14.15299988 16.26199913 9.47200012
14.15400028 16.26199913 9.45800018
14.15699959 16.26300049 9.44400024
14.15999985 16.26300049 9.43099976
14.16499996 16.26399994 9.42000008
14.17300034 16.26499939 9.40900040
13.88300037 16.23500061 10.05300045
13.94099998 16.24099922 9.61800003
14.18599987 16.28400040 9.73400021
14.19200039 16.28499985 9.72200012
14.19400024 16.28499985 9.70800018
14.20100021 16.28599930 9.66699982
13.97399998 16.24500084 9.48799992
14.14000034 16.27400017 9.52499962
14.14299965 16.27400017 9.51200008
14.14299965 16.27400017 9.49699974
14.14299965 16.27400017 9.48200035
14.14599991 16.27499962 9.46899986
14.15100002 16.27499962 9.45699978
14.15400028 16.27599907 9.44400024
14.16199970 16.27700043 9.43400002
14.16899967 16.27799988 9.42300034
13.89200020 16.24300003 10.06299973
13.95400047 16.25000000 9.63000011
13.95400047 16.24900055 9.61499977
14.19099998 16.29100037 9.71000004
14.19799995 16.29199982 9.69999981
14.20600033 16.29400063 9.68999958
14.19999981 16.29299927 9.67000008
13.95800018 16.24900055 9.49800014
13.96500015 16.25000000 9.48700047
14.13000011 16.27899933 9.53899956
14.13399982 16.28000069 9.52600002
14.13399982 16.28000069 9.51099968
14.13799953 16.28000069 9.49899960
14.14099979 16.28100014 9.48499966
14.14400005 16.28100014 9.47200012
14.14900017 16.28199959 9.46000004
14.15799999 16.28300095 9.44999981
14.16399956 16.28400040 9.43799973
13.87899971 16.25399971 10.06099987
13.88399982 16.25499916 10.05000019
13.91300011 16.25600052 9.59700012
13.98499966 16.26899910 9.62500000
14.18400002 16.30400085 9.68299961
14.18999958 16.30500031 9.67099953
13.94799995 16.26099968 9.49899960
14.11999989 16.29199982 9.55500031
14.11999989 16.29199982 9.53899956
14.12199974 16.29199982 9.52600002
14.12600040 16.29199982 9.51299953
14.13000011 16.29299927 9.50000000
14.13599968 16.29400063 9.48900032
14.14500046 16.29500008 9.47900009
14.15400028 16.29700089 9.47000027
13.88199997 16.26799965 10.05900002
14.04100037 16.29299927 9.72999954
14.02999973 16.29100037 9.70899963
14.03199959 16.29100037 9.69499969
13.96700001 16.27899933 9.62600040
14.00599957 16.28599930 9.63399982
14.18099976 16.31699944 9.67800045
14.17199993 16.31500053 9.65699959
13.94699955 16.27499962 9.50899982
14.10299969 16.30200005 9.58600044
14.10499954 16.30299950 9.57299995
14.10700035 16.30299950 9.55900002
14.11299992 16.30400085 9.54699993
14.11499977 16.30400085 9.53299999
14.12100029 16.30500031 9.52200031
14.12800026 16.30599976 9.51099968
14.13599968 16.30699921 9.50000000
13.88099957 16.27499962 10.05900002
13.88700008 16.27599907 10.04800034
14.00699997 16.29400063 9.73999977
14.01799965 16.29500008 9.73200035
14.02000046 16.29599953 9.71800041
14.02400017 16.29599953 9.70499992
14.02600002 16.29700089 9.69200039
13.98400021 16.28899956 9.65100002
14.01799965 16.29500008 9.64099979
14.21300030 16.32999992 9.71199989
14.16699982 16.32099915 9.66899967
14.15699959 16.31900024 9.64799976
14.10000038 16.30900002 9.59899998
14.09700012 16.30800056 9.58300018
14.10099983 16.30800056 9.56999969
14.10299969 16.30900002 9.55599976
14.10900021 16.30999947 9.54500008
14.11499977 16.31100082 9.53299999
14.12300014 16.31200027 9.52299976
14.12899971 16.31299973 9.51099968
13.87600040 16.28800011 10.05900002
13.97099972 16.30200005 9.75100040
13.98299980 16.30400085 9.74300003
14.04500008 16.31399918 9.64400005
14.07999992 16.31999969 9.63599968
14.07999992 16.31999969 9.61999989
14.08500004 16.31999969 9.60700035
14.08699989 16.32099915 9.59399986
14.09300041 16.32099915 9.58199978
14.09599972 16.32200050 9.56900024
14.10000038 16.32200050 9.55700016
14.10799980 16.32399940 9.54599953
13.83399963 16.29500008 10.04199982
13.81999969 16.29199982 10.01799965
13.81799984 16.29100037 10.00199986
14.05099964 16.32900047 9.64299965
14.06200027 16.33099937 9.63500023
14.06700039 16.33200073 9.62199974
14.07199955 16.33300018 9.60999966
14.07900047 16.33399963 9.59899998
14.08699989 16.33499908 9.58899975
14.09500027 16.33600044 9.57900047
14.09899998 16.33699989 9.56599998
14.09300041 16.33600044 9.54800034
13.83300018 16.30100060 10.04300022
13.84399986 16.30299950 10.03499985
13.81900024 16.29800034 10.00300026
14.05799961 16.33699989 9.66300011
14.05200005 16.33600044 9.64400005
14.05700016 16.33600044 9.63300037
14.06299973 16.33799934 9.62100029
14.07100010 16.33900070 9.61100006
14.07699966 16.34000015 9.60000038
14.08699989 16.34099960 9.59000015
14.09799957 16.34300041 9.58100033
14.10200024 16.34399986 9.56900024
14.07999992 16.34000015 9.54100037
13.83199978 16.31399918 10.03100014
13.84300041 16.31599998 10.02299976
14.23400021 16.38400078 9.84899998
14.03199959 16.34600067 9.71300030
14.03199959 16.34600067 9.69699955
14.03800011 16.34700012 9.68500042
14.04100037 16.34700012 9.67199993
14.04399967 16.34799957 9.65900040
14.05000019 16.34900093 9.64700031
14.05399990 16.34900093 9.63500023
14.06299973 16.35099983 9.62500000
14.05300045 16.34799957 9.54399967
14.06700039 16.35099983 9.53800011
13.86600018 16.33399963 10.03800011
14.15100002 16.38299942 9.82999992
14.02200031 16.35899925 9.73700047
14.01599979 16.35799980 9.71899986
14.01900005 16.35799980 9.70499992
14.02400017 16.35899925 9.69299984
14.02999973 16.36000061 9.68200016
14.03699970 16.36100006 9.67099953
14.04399967 16.36199951 9.65999985
14.05200005 16.36400032 9.64900017
14.06000042 16.36499977 9.63899994
14.06400013 16.36499977 9.55099964
13.84799957 16.33699989 10.02900028
14.00899982 16.36300087 9.73299980
14.01299953 16.36300087 9.72000027
14.01599979 16.36400032 9.70600033
14.02299976 16.36499977 9.69499969
14.02799988 16.36599922 9.68400002
14.03400040 16.36700058 9.67199993
14.04199982 16.36800003 9.66199970
14.05200005 16.37000084 9.65299988
13.98099995 16.37100029 9.78100014
13.98700047 16.37199974 9.76900005
13.98799992 16.37199974 9.75599957
13.99400043 16.37299919 9.74400043
13.99899960 16.37400055 9.73099995
14.00500011 16.37500000 9.72000027
14.01200008 16.37599945 9.70899963
14.02200031 16.37800026 9.69999981
14.03400040 16.37999916 9.69299984
14.03499985 16.37999916 9.67800045
14.04899979 16.38199997 9.67099953
14.03699970 16.39699936 9.88899994
13.96100044 16.38199997 9.79699993
13.96899986 16.38400078 9.78600025
13.97200012 16.38400078 9.77299976
13.97700024 16.38500023 9.76200008
13.98099995 16.38500023 9.74800014
13.98900032 16.38699913 9.73799992
14.00100040 16.38899994 9.72999954
14.01000023 16.38999939 9.72099972
14.02200031 16.39200020 9.71300030
13.86699963 16.37400055 10.02900028
14.03600025 16.40399933 9.88899994
14.04500008 16.40500069 9.87899971
13.95400047 16.38800049 9.80799961
13.95800018 16.38899994 9.79599953
13.96300030 16.38899994 9.78299999
13.96800041 16.38999939 9.77099991
13.97500038 16.39100075 9.76099968
13.97799969 16.39200020 9.74699974
13.98999977 16.39399910 9.73900032
13.93900013 16.39800072 9.81999969
13.94900036 16.39999962 9.79599953
13.95600033 16.40099907 9.78499985
13.96599960 16.40200043 9.77499962
13.97599983 16.40399933 9.76700020
13.92800045 16.40999985 9.82900047
13.93099976 16.40999985 9.81599998
14.03100014 16.42600060 9.55900002
13.92000008 16.41600037 9.83199978
13.92500019 16.41699982 9.81999969
13.93500042 16.41900063 9.81099987
13.94099998 16.42000008 9.80000019
13.99899960 16.42900085 9.57800007
14.00800037 16.43000031 9.56900024
14.02099991 16.43199921 9.56099987
13.79100037 16.40699959 10.00399971
13.87500000 16.42300034 10.01099968
13.90699959 16.42700005 9.86200047
13.90900040 16.42799950 9.84899998
13.91399956 16.42799950 9.83600044
13.92000008 16.42900085 9.82499981
13.93099976 16.43099976 9.81700039
14.05099964 16.45299911 9.70699978
14.05300045 16.45299911 9.69299984
13.95600033 16.45299911 10.12300014
13.78600025 16.42000008 10.00000000
13.87399960 16.43600082 10.01000023
13.88399982 16.43799973 10.00100040
13.88899994 16.43799973 9.89700031
13.89099979 16.43799973 9.88300037
13.89500046 16.43899918 9.86999989
13.91499996 16.44199944 9.83699989
13.64299965 16.40099907 9.94299984
13.95600033 16.45999908 10.10900021
13.88599968 16.44599915 9.98900032
13.89000034 16.44700050 9.97599983
13.88599968 16.44599915 9.95800018
13.87399960 16.44300079 9.90499973
13.88199997 16.44499969 9.89500046
13.88700008 16.44499969 9.88300037
13.89400005 16.44700050 9.87100029
13.89700031 16.44700050 9.85799980
13.90499973 16.44799995 9.84799957
14.06299973 16.47699928 9.71599960
13.62600040 16.41200066 10.09200001
13.84399986 16.45299911 10.10700035
13.64900017 16.41500092 9.93900013
13.76099968 16.43600082 9.94799995
13.88199997 16.45899963 9.99300003
13.85700035 16.45400047 9.96199989
13.84799957 16.45199966 9.94099998
13.85299969 16.45299911 9.92899990
13.85599995 16.45299911 9.91600037
13.86699963 16.45499992 9.90799999
13.87399960 16.45599937 9.89700031
13.88099957 16.45700073 9.88599968
13.89099979 16.45899963 9.87699986
13.89700031 16.45999908 9.86499977
14.06599998 16.49300003 9.93799973
14.05799961 16.48900032 9.72000027
14.07199955 16.49200058 9.71300030
13.85799980 16.46800041 10.09700012
13.76399994 16.44899940 9.96199989
13.77799988 16.45100021 9.95499992
13.80700016 16.45700073 9.95899963
13.82699966 16.46100044 9.95600033
13.83600044 16.46199989 9.94600010
13.84099960 16.46299934 9.93400002
13.84899998 16.46400070 9.92300034
13.86400032 16.46699905 9.90200043
13.87800026 16.46999931 9.89599991
13.88300037 16.46999931 9.88399982
13.91100025 16.47500038 9.85499954
14.04599953 16.49900055 9.72399998
14.06999969 16.50399971 9.72399998
13.61499977 16.43099976 10.20400047
13.78100014 16.45899963 9.95699978
13.81099987 16.46500015 9.96100044
13.82299995 16.46699905 9.95300007
13.83300018 16.46899986 9.94400024
13.84200001 16.46999931 9.93500042
13.85000038 16.47200012 9.92399979
13.85999966 16.47400093 9.91499996
13.86499977 16.47500038 9.90299988
13.87800026 16.47699928 9.89599991
13.89500046 16.47999954 9.86100006
13.90299988 16.48100090 9.85000038
13.98700047 16.49600029 9.77999973
14.03299999 16.50399971 9.73200035
14.07299995 16.51199913 9.72599983
13.60799980 16.44199944 10.20499992
13.61900043 16.44400024 10.19699955
13.76200008 16.46999931 10.05700016
13.76299953 16.46999931 10.04300022
13.77999973 16.47299957 10.00800037
13.70300007 16.45700073 9.92899990
13.80200005 16.47699928 9.97500038
13.81099987 16.47800064 9.96599960
13.82199955 16.47999954 9.95699978
13.83199978 16.48200035 9.94799995
13.89599991 16.49300003 9.86699963
13.89799976 16.49300003 9.85200024
14.02000046 16.51499939 9.74400043
14.07999992 16.52700043 9.75000000
14.07600021 16.52599907 9.73299980
13.61600018 16.45599937 10.19499969
13.62699986 16.45800018 10.18599987
13.75899982 16.48200035 10.02600002
13.79300022 16.48800087 9.98600006
13.80500031 16.48999977 9.97799969
13.81599998 16.49200058 9.97000027
13.89999962 16.50699997 9.86900043
14.08500004 16.54100037 9.75399971
13.63000011 16.46599960 10.18900013
13.63700008 16.46800041 10.17800045
13.68299961 16.47599983 10.11600018
13.79399967 16.49600029 9.98700047
13.80500031 16.49799919 9.97900009
13.92800045 16.52099991 9.96300030
13.90100002 16.51499939 9.88599968
13.90699959 16.51600075 9.87399960
14.08800030 16.54999924 9.78699970
14.09000015 16.54999924 9.77200031
14.09099960 16.54999924 9.75800037
13.63199997 16.47999954 10.17800045
13.70600033 16.49399948 10.13399982
13.91699982 16.53199959 9.91399956
13.90499973 16.52899933 9.89099979
13.90900040 16.53000069 9.87899971
14.10000038 16.56500053 9.76599979
13.64000034 16.49399948 10.16600037
13.64900017 16.49600029 10.15699959
13.64999962 16.49600029 10.14200020
13.66300011 16.49799919 10.13500023
13.66499996 16.49900055 10.12100029
13.67399979 16.50000000 10.11100006
13.72799969 16.51099968 10.08500004
13.73499966 16.51199913 10.07400036
13.74600029 16.51399994 10.06499958
13.90799999 16.54299927 9.89099979
13.91499996 16.54400063 9.88000011
14.10000038 16.57900047 9.79500008
14.10499954 16.57999992 9.78299999
14.10700035 16.57999992 9.76900005
13.68099976 16.51099968 10.21100044
13.71100044 16.51499939 10.10700035
13.72500038 16.51799965 10.10000038
13.79100037 16.53000069 10.03499985
13.90900040 16.55100060 9.89500046
13.90999985 16.55100060 9.87899971
14.10999966 16.58900070 9.77299976
13.65699959 16.52000046 10.26200008
13.65699959 16.52000046 10.24699974
13.59200001 16.50699997 10.17399979
13.62500000 16.51300049 10.18000031
13.67399979 16.52199936 10.19600010
13.68599987 16.52499962 10.17300034
13.69499969 16.52599907 10.16399956
13.69799995 16.52700043 10.14999962
13.70699978 16.52899933 10.14000034
13.71000004 16.52899933 10.12699986
13.86299992 16.55900002 10.19299984
13.86499977 16.55900002 10.18000031
13.79800034 16.54500008 10.06000042
13.63500023 16.51199913 9.91100025
13.90900040 16.56500053 9.89999962
13.91499996 16.56599998 9.88799953
14.12899971 16.60700035 9.81999969
14.11299992 16.60300064 9.77999973
13.63000011 16.52799988 10.30900002
13.63199997 16.52799988 10.29500008
13.63700008 16.52899933 10.28299999
13.64400005 16.53000069 10.27200031
13.64700031 16.53100014 10.25800037
13.64900017 16.53100014 10.24400043
13.66399956 16.53300095 10.20800018
13.68299961 16.53700066 10.18900013
13.68999958 16.53800011 10.17800045
13.70400047 16.54100037 10.17199993
13.70300007 16.54100037 10.15600014
13.86100006 16.57099915 10.17899990
13.80099964 16.55900002 10.12600040
13.78499985 16.55599976 10.10000038
13.79500008 16.55800056 10.09200001
13.80399990 16.55900002 10.08199978
13.77099991 16.55299950 10.04599953
13.77700043 16.55400085 10.03400040
13.91300011 16.57900047 9.90499973
13.91300011 16.57900047 9.88899994
14.13199997 16.62100029 9.82499981
14.12399960 16.61899948 9.80500031
14.11400032 16.61700058 9.78299999
14.13000011 16.62000084 9.77799988
13.60499954 16.53100014 10.33199978
13.61400032 16.53300095 10.32199955
13.62100029 16.53400040 10.31099987
13.62300014 16.53400040 10.29800034
13.63000011 16.53499985 10.28699970
13.63399982 16.53599930 10.27400017
13.64000034 16.53700066 10.26299953
13.64400005 16.53800011 10.24899960
13.59000015 16.52700043 10.19900036
13.65900040 16.54000092 10.22799969
13.66499996 16.54100037 10.21700001
13.71599960 16.55100060 10.18799973
13.71399975 16.54999924 10.17099953
13.79300022 16.56500053 10.12899971
13.79199982 16.56500053 10.11299992
13.81499958 16.56999969 10.11200047
13.81799984 16.56999969 10.09799957
13.91300011 16.58699989 9.91300011
14.10999966 16.62400055 9.78899956
14.12699986 16.62700081 9.78400040
13.56799984 16.53700066 10.41100025
13.57199955 16.53800011 10.39799976
13.57900047 16.53899956 10.38700008
13.58300018 16.54000092 10.37500000
13.58800030 16.54100037 10.36200047
13.59300041 16.54100037 10.35000038
13.60400009 16.54299927 10.32600021
13.61100006 16.54500008 10.31499958
13.61600018 16.54599953 10.30300045
13.62399960 16.54700089 10.29199982
13.63199997 16.54800034 10.28199959
13.63599968 16.54899979 10.27000046
13.63799953 16.54899979 10.25500011
13.64999962 16.55200005 10.24800014
13.65499973 16.55299950 10.23499966
13.72500038 16.56599998 10.25000000
13.72599983 16.56599998 10.23400021
13.72799969 16.56599998 10.22099972
13.72200012 16.56500053 10.20100021
13.81700039 16.58399963 10.18500042
13.82400036 16.58499908 10.17399979
13.82900047 16.58600044 10.16199970
13.83500004 16.58699989 10.14999962
13.85299969 16.59000015 10.14599991
13.92099953 16.60099983 9.89700031
14.09099960 16.63299942 9.80200005
14.10000038 16.63500023 9.79300022
13.55599976 16.54700089 10.41899967
13.56099987 16.54800034 10.40699959
13.56999969 16.54999924 10.39700031
13.57299995 16.54999924 10.38399982
13.57800007 16.55100060 10.37100029
13.58500004 16.55299950 10.35999966
13.58800030 16.55299950 10.34700012
13.59300041 16.55400085 10.33500004
13.60200024 16.55599976 10.32499981
13.60999966 16.55699921 10.31499958
13.61699963 16.55800056 10.30399990
13.62500000 16.55999947 10.29399967
13.63199997 16.56100082 10.28199959
13.62100029 16.55900002 10.26000023
13.63300037 16.56100082 10.25199986
13.73099995 16.57999992 10.23900032
13.72500038 16.57900047 10.21899986
13.79500008 16.59199905 10.20199966
13.80599976 16.59399986 10.19400024
13.81000042 16.59499931 10.18099976
13.87600040 16.60799980 10.16100025
14.09000015 16.64599991 9.80200005
13.55399990 16.55400085 10.42099953
13.56000042 16.55500031 10.40999985
13.56599998 16.55699921 10.39799976
13.57199955 16.55800056 10.38599968
13.57600021 16.55800056 10.37399960
13.58300018 16.55999947 10.36299992
13.59000015 16.56100082 10.35200024
13.59799957 16.56200027 10.34200001
13.60000038 16.56299973 10.32699966
13.60799980 16.56399918 10.31700039
13.61999989 16.56599998 10.26299953
13.73400021 16.58799934 10.24400043
13.72700024 16.58600044 10.22399998
13.77499962 16.59600067 10.20899963
13.79199982 16.59900093 10.20400047
13.88199997 16.61599922 10.16899967
13.56900024 16.56999969 10.40600014
13.57299995 16.57099915 10.39400005
13.57699966 16.57200050 10.38000011
13.61800003 16.57900047 10.26799965
13.81099987 16.61800003 10.37800026
13.73799992 16.60199928 10.28299999
13.73799992 16.60199928 10.26799965
13.73499966 16.60099983 10.25100040
13.71599960 16.59700012 10.22299957
13.88300037 16.62999916 10.18999958
13.88799953 16.63100052 10.17800045
13.89999962 16.63100052 9.90900040
13.91100025 16.63299942 9.90100002
13.57699966 16.58600044 10.41100025
13.61400032 16.59199905 10.27900028
13.76900005 16.62299919 10.34899998
13.74100018 16.61700058 10.31499958
13.73999977 16.61700058 10.29899979
13.74300003 16.61700058 10.28499985
13.86600018 16.64100075 10.20899963
13.87100029 16.64200020 10.19699955
13.88199997 16.64399910 10.18799973
13.89700031 16.64399910 9.90600014
13.57499981 16.59199905 10.42199993
13.57600021 16.59199905 10.40799999
14.28899956 15.93900013 9.39700031
13.57900047 16.62599945 10.31900024
13.60000038 16.62999916 10.30200005
13.85200024 16.67700005 9.90900040
13.85700035 16.67700005 9.89799976
13.92099953 16.69099998 9.92199993
13.59599972 16.64200020 10.30200005
13.84300041 16.68799973 9.90799999
13.92599964 16.70499992 9.92800045
13.57999992 16.65299988 10.31599998
13.59000015 16.65500069 10.30700016
13.92500019 16.71899986 9.93599987
13.57800007 16.65900040 10.31799984
13.55000019 16.66600037 10.31900024
13.57199955 16.67000008 10.31799984
13.54399967 16.67799950 10.31499958
13.56299973 16.68899918 10.34399986
13.56599998 16.69000053 10.33100033
13.56700039 16.70299911 10.34000015
13.56099987 16.71500015 10.34899998
13.56599998 16.71599960 10.33600044
13.55099964 16.72100067 10.35799980
13.55700016 16.72200012 10.34700012
14.21300030 15.80399990 9.39700031
14.31499958 15.89500046 9.42399979
14.26599979 15.93599987 9.47500038
14.25500011 15.93400002 9.43799973
14.28199959 15.93799973 9.40900040
13.42199993 16.26199913 10.67700005
13.30000019 16.24600029 10.70699978
13.31000042 16.24799919 10.69799995
13.31000042 16.24699974 10.68200016
13.38099957 16.26000023 10.65299988
13.31099987 16.26000023 10.68799973
13.32400036 16.26199913 10.68099976
13.39000034 16.27400017 10.66399956
13.38300037 16.27199936 10.64400005
13.32100010 16.27599907 10.67700005
13.33300018 16.27799988 10.67000008
13.32800007 16.28300095 10.66699982
13.34200001 16.28599930 10.65999985
13.35000038 16.29899979 10.65600014
13.39700031 16.30800056 10.64200020
13.45600033 16.31800079 10.65100002
13.30399990 16.32399940 10.60999966
13.35999966 16.33399963 10.63399982
13.37899971 16.33799934 10.63099957
13.38899994 16.34000015 10.62199974
13.34300041 16.34399986 10.62100029
13.38199997 16.35199928 10.63300037
13.38799953 16.35300064 10.62100029
13.34899998 16.35300064 10.62800026
13.36200047 16.35499954 10.62100029
13.38700008 16.36000061 10.62199974
13.34700012 16.36599922 10.63399982
13.43099976 16.34700012 10.63500023
13.41199970 16.38699913 11.43599987
13.39400005 16.37400055 10.61999989
13.41199970 16.39900017 11.43200016
13.41600037 16.39900017 11.41800022
13.42599964 16.40099907 11.39200020
13.39400005 16.38599968 10.61499977
13.41300011 16.40600014 11.41600037
13.41899967 16.40699959 11.38700008
13.40999985 16.39599991 10.59599972
13.41199970 16.41799927 11.40400028
13.41899967 16.41900063 11.39299965
13.36400032 16.40699959 11.18999958
13.41100025 16.43099976 11.38700008
13.35999966 16.41900063 11.18799973
13.36999989 16.42000008 11.17899990
13.37199974 16.41600037 10.76399994
13.38300037 16.41799927 10.75599957
13.39700031 16.42099953 10.75000000
13.36699963 16.41399956 10.66600037
13.37899971 16.41600037 10.65799999
13.41100025 16.42200089 10.60200024
13.42500019 16.42399979 10.59599972
13.39700031 16.43600082 11.44400024
13.40799999 16.43700027 11.38599968
13.41199970 16.43799973 11.37300014
13.37300014 16.42799950 11.18099976
13.37100029 16.42300034 10.76399994
13.38199997 16.42499924 10.75500011
13.39599991 16.42799950 10.74899960
13.40200043 16.42900085 10.73799992
13.42599964 16.43199921 10.59700012
13.54500008 16.45499992 10.61499977
13.54899979 16.45499992 10.60200024
13.54699993 16.45499992 10.58500004
13.38700008 16.44700050 11.43999958
13.39099979 16.44799995 11.42800045
13.39299965 16.44799995 11.41199970
13.40400028 16.44899940 11.37100029
13.38700008 16.44400024 11.19499969
13.38399982 16.44300079 11.17700005
13.39799976 16.44099998 10.73900032
13.40400028 16.44099998 10.63199997
13.41499996 16.44300079 10.62399960
13.41899967 16.44400024 10.59500027
13.51000023 16.46100044 10.57900047
13.52400017 16.46400070 10.57299995
13.54599953 16.46800041 10.57199955
13.37199974 16.45700073 11.42700005
13.38300037 16.45899963 11.41899967
13.39000034 16.45999908 11.40799999
13.39299965 16.45999908 11.39299965
13.39299965 16.45999908 11.37699986
13.39599991 16.46100044 11.36299992
13.38899994 16.45700073 11.19400024
13.38700008 16.45700073 11.17599964
13.40200043 16.45499992 10.73900032
13.40999985 16.45599937 10.72900009
13.42199993 16.45700073 10.61100006
13.43500042 16.45999908 10.58899975
13.53699970 16.47900009 10.56400013
13.38799953 16.46699905 11.39200020
13.39099979 16.46699905 11.37800026
13.37699986 16.46400070 11.30200005
13.38599968 16.46400070 11.17800045
13.41499996 16.46500015 10.73499966
13.43400002 16.46699905 10.59099960
13.54399967 16.48800087 10.55500031
13.38700008 16.47999954 11.34799957
13.38700008 16.47900009 11.33199978
13.38700008 16.47999954 11.31599998
13.38399982 16.47900009 11.29699993
13.38799953 16.47900009 11.28299999
13.38700008 16.47900009 11.26700020
13.38799953 16.47900009 11.25100040
13.38799953 16.47900009 11.23499966
13.41800022 16.47900009 10.72700024
13.44099998 16.48200035 10.58600044
13.44799995 16.48299980 10.57499981
13.54199982 16.50099945 10.54399967
13.38700008 16.49200058 11.33500004
13.38500023 16.49200058 11.31700039
13.38099957 16.49099922 11.29800034
13.38500023 16.49099922 11.28400040
13.38399982 16.49099922 11.26799965
13.38300037 16.48999977 11.25000000
13.38300037 16.48999977 11.23400021
13.38199997 16.48999977 11.21700001
13.38099957 16.48900032 11.19999981
13.37899971 16.48900032 11.16600037
13.41199970 16.48999977 10.74100018
13.41800022 16.49099922 10.72999954
13.44900036 16.49600029 10.57800007
13.45800018 16.49699974 10.56900024
13.53600025 16.51199913 10.55799961
13.54300022 16.51399994 10.54699993
13.54899979 16.51499939 10.53699970
13.38700008 16.50000000 11.34300041
13.42300034 16.50000000 10.72599983
13.44900036 16.50300026 10.57100010
13.46000004 16.50499916 10.56200027
13.46800041 16.50699997 10.55200005
13.53699970 16.52000046 10.56700039
13.53999996 16.52099991 10.55399990
13.54399967 16.52099991 10.54100037
13.54800034 16.52199936 10.52799988
13.42199993 16.51199913 10.72000027
13.46300030 16.51799965 10.55900002
13.47200012 16.52000046 10.54899979
13.48099995 16.52199936 10.53999996
13.55000019 16.53499985 10.52400017
13.55399990 16.53599930 10.51099968
13.55500031 16.53499985 10.43299961
13.56299973 16.53700066 10.42399979
13.42399979 16.52499962 10.72099972
13.42599964 16.52499962 10.70699978
13.48200035 16.53400040 10.54100037
13.49100018 16.53599930 10.53100014
13.50800037 16.53899956 10.52799988
13.52200031 16.54199982 10.50500011
13.52999973 16.54299927 10.49499989
13.52999973 16.54299927 10.47999954
13.53499985 16.54400063 10.46700001
13.53999996 16.54500008 10.45499992
13.54399967 16.54599953 10.44200039
13.55099964 16.54700089 10.43099976
13.39900017 16.52700043 10.75500011
13.40400028 16.52799988 10.74300003
13.41100025 16.53000069 10.73200035
13.41899967 16.53100014 10.72200012
13.42700005 16.53300095 10.71100044
13.49300003 16.54400063 10.55099964
13.48900032 16.54299927 10.53299999
13.49899960 16.54500008 10.52499962
13.51000023 16.54700089 10.51599979
13.50899982 16.54599953 10.50000000
13.52000046 16.54899979 10.49199963
13.52299976 16.54899979 10.47799969
13.52700043 16.54999924 10.46599960
13.53100014 16.54999924 10.45300007
13.53800011 16.55100060 10.44200039
13.54699993 16.55299950 10.43200016
13.40600014 16.54199982 10.73400021
13.40999985 16.54199982 10.72200012
13.41800022 16.54400063 10.71199989
13.42199993 16.54500008 10.69799995
13.43500042 16.54700089 10.67599964
13.43799973 16.54700089 10.66199970
13.44099998 16.54800034 10.64900017
13.44699955 16.54899979 10.63700008
13.45400047 16.54999924 10.62500000
13.46100044 16.55100060 10.61499977
13.46599960 16.55200005 10.60299969
13.47200012 16.55299950 10.59099960
13.47700024 16.55400085 10.57900047
13.48400021 16.55500031 10.56799984
13.48799992 16.55599976 10.55500031
13.49199963 16.55699921 10.54199982
13.49300003 16.55699921 10.52700043
13.50300026 16.55800056 10.51799965
13.50199986 16.55800056 10.50199986
13.49400043 16.55599976 10.48099995
13.51500034 16.56100082 10.47900009
13.52000046 16.56100082 10.46599960
13.52999973 16.56299973 10.45800018
13.54100037 16.56500053 10.44999981
13.55099964 16.56699944 10.44099998
13.56599998 16.56999969 10.43599987
13.57199955 16.57099915 10.42399979
13.47700024 16.57099915 10.94099998
13.41399956 16.55800056 10.83399963
13.42199993 16.55900002 10.82299995
13.42500019 16.55999947 10.81000042
13.42300034 16.55900002 10.79300022
13.41800022 16.55800056 10.77299976
13.40999985 16.55599976 10.75100040
13.41300011 16.55599976 10.72200012
13.41600037 16.55699921 10.70899963
13.41800022 16.55699921 10.69400024
13.42500019 16.55800056 10.68400002
13.43200016 16.55999947 10.67199993
13.43400002 16.55999947 10.65699959
13.43999958 16.56100082 10.64599991
13.44299984 16.56100082 10.63199997
13.45100021 16.56299973 10.62300014
13.45600033 16.56399918 10.60999966
13.46000004 16.56399918 10.59700012
13.46700001 16.56500053 10.58600044
13.47500038 16.56699944 10.57600021
13.48299980 16.56900024 10.56599998
13.48799992 16.56900024 10.55300045
13.49400043 16.57099915 10.54199982
13.52900028 16.57699966 10.54899979
13.55000019 16.58200073 10.54800034
13.50399971 16.57200050 10.50199986
13.50599957 16.57200050 10.48700047
13.55799961 16.58300018 10.50599957
13.55300045 16.58200073 10.48799992
13.58300018 16.58699989 10.46000004
13.57699966 16.58600044 10.44099998
13.57699966 16.58600044 10.42500019
13.47500038 16.57699966 10.92300034
13.47799969 16.57799911 10.90799999
13.44600010 16.57099915 10.85499954
13.44400024 16.56999969 10.83699989
13.42800045 16.56699944 10.81099987
13.42599964 16.56599998 10.79300022
13.42199993 16.56500053 10.77400017
13.42199993 16.56500053 10.75800037
13.41300011 16.56299973 10.73700047
13.41600037 16.56399918 10.72200012
13.41800022 16.56399918 10.70800018
13.42099953 16.56399918 10.69400024
13.42899990 16.56599998 10.68400002
13.43099976 16.56599998 10.67000008
13.43599987 16.56699944 10.65799999
13.43999958 16.56699944 10.64500046
13.44400024 16.56800079 10.63199997
13.44999981 16.56900024 10.61999989
13.45800018 16.57099915 10.60999966
13.46300030 16.57200050 10.59700012
13.47200012 16.57299995 10.58800030
13.47900009 16.57500076 10.57699966
13.48299980 16.57500076 10.56400013
13.48999977 16.57600021 10.55300045
13.56700039 16.59199905 10.57299995
13.49899960 16.57799911 10.49699974
13.55399990 16.58900070 10.51799965
13.55799961 16.58900070 10.50399971
13.46700001 16.58900070 10.90400028
13.46100044 16.58799934 10.88399982
13.45800018 16.58699989 10.86600018
13.54899979 16.60199928 10.56499958
13.46399975 16.58399963 10.49100018
13.44699955 16.57999992 10.44900036
13.57299995 16.60499954 10.42399979
13.45800018 16.60099983 10.90999985
13.46300030 16.60199928 10.89799976
13.56700039 16.62000084 10.61999989
13.57100010 16.62000084 10.60700035
13.46700001 16.59799957 10.50599957
13.51799965 16.60899925 10.52499962
13.43900013 16.59199905 10.45600033
13.45699978 16.59600067 10.45199966
13.56900024 16.61800003 10.43400002
13.56799984 16.63800049 10.42399979
13.62899971 16.66699982 10.71000004
13.60000038 16.66099930 10.67399979
13.47500038 16.63299942 10.44900036
13.49300003 16.63699913 10.44499969
13.57100010 16.65299988 10.45100021
13.56200027 16.65099907 10.42899990
13.62399960 16.67200089 10.70800018
13.61600018 16.67000008 10.68700027
13.45300007 16.63500023 10.45199966
13.47000027 16.63800049 10.44699955
13.56900024 16.65900040 10.46700001
13.57900047 16.65999985 10.45699978
13.58100033 16.67300034 10.46399975
13.58399963 16.68899918 10.48200035
13.58500004 16.69499969 10.48400021
13.58100033 16.70700073 10.48999977
13.57800007 16.71999931 10.50000000
13.58199978 16.72900009 10.50399971
13.57299995 16.73999977 10.51900005
13.57999992 16.74200058 10.50800037
13.56799984 16.75300026 10.52999973
13.57900047 16.75499916 10.52200031
13.57199955 16.76099968 10.53600025
13.57199955 16.76099968 10.52099991
13.56299973 16.77300072 10.53800011
13.28100014 16.17099953 10.73400021
13.27200031 16.17499924 10.72700024
13.28400040 16.17700005 10.72000027
13.23700047 16.18300056 10.73700047
13.24899960 16.18499947 10.72999954
13.27900028 16.19000053 10.71899986
13.29100037 16.19199944 10.71199989
13.25599957 16.20000076 10.72900009
13.28899956 16.20499992 10.70499992
13.29599953 16.20599937 10.69499969
13.24400043 16.20400047 10.73700047
13.25500011 16.20599937 10.72999954
13.26599979 16.20800018 10.72099972
13.29599953 16.21299934 10.69499969
13.27400017 16.22200012 10.71599960
13.28400040 16.22299957 10.70800018
13.30200005 16.22599983 10.68900013
13.43000031 16.24900055 10.68200016
13.30399990 16.24099922 10.70600033
13.31000042 16.24200058 10.69400024
13.31299973 16.24200058 10.68099976
13.36100006 16.25000000 10.65100002
13.49199963 16.32500076 11.79300022
13.46199989 16.35300064 11.77000046
13.43999958 16.36199951 11.74600029
13.43599987 16.36100006 11.72599983
13.42199993 16.35799980 11.69799995
13.41899967 16.35600090 11.59599972
13.39099979 16.36400032 11.62500000
13.41199970 16.36800003 11.59000015
13.41800022 16.36899948 11.57800007
13.41199970 16.36599922 11.45800018
13.42700005 16.38100052 11.78800011
13.41300011 16.37800026 11.76099968
13.38599968 16.37100029 11.60599995
13.39599991 16.37299919 11.59799957
13.39999962 16.37299919 11.58399963
13.41399956 16.37599945 11.57800007
13.40999985 16.37400055 11.45800018
13.41699982 16.37500000 11.44699955
13.38599968 16.38400078 11.59899998
13.39299965 16.38500023 11.58699989
13.39599991 16.38500023 11.57299995
13.43000031 16.38999939 11.48200035
13.41199970 16.38699913 11.45199966
13.39099979 16.39599991 11.56499958
13.39599991 16.39699936 11.55200005
13.38899994 16.39500046 11.52999973
13.36999989 16.39200020 11.49899960
13.43099976 16.40299988 11.47900009
13.41800022 16.39999962 11.45199966
13.39099979 16.40299988 11.54800034
13.39700031 16.40399933 11.53499985
13.38099957 16.40099907 11.50699997
13.38599968 16.40200043 11.49400043
13.38700008 16.41500092 11.55200005
13.39200020 16.41600037 11.53800011
13.39099979 16.41600037 11.52099991
13.39099979 16.41500092 11.50399971
13.39200020 16.41600037 11.48900032
13.39599991 16.41600037 11.47500038
13.38300037 16.42700005 11.56499958
13.38500023 16.42700005 11.55000019
13.38899994 16.42799950 11.50399971
13.38599968 16.42700005 11.48499966
13.39200020 16.42799950 11.47299957
13.39799976 16.42900085 11.46100044
13.46599960 16.44199944 11.49400043
13.36400032 16.43099976 11.58500004
13.37399960 16.43300056 11.57499981
13.37699986 16.43300056 11.56099987
13.38599968 16.43400002 11.46899986
13.39299965 16.43499947 11.45699978
13.36200047 16.44400024 11.58800030
13.36999989 16.30299950 11.71700001
13.35400009 16.31200027 11.72999954
13.36400032 16.31399918 11.72000027
13.38599968 16.31800079 11.72000027
13.39000034 16.31800079 11.70699978
13.39200020 16.33200073 11.72500038
13.39999962 16.33399963 11.71399975
13.39099979 16.33200073 11.69099998
13.41399956 16.33600044 11.69099998
13.41300011 16.34399986 11.71599960
13.39599991 16.34000015 11.68700027
13.40299988 16.34099960 11.67500019
13.39999962 16.35300064 11.66499996
13.39700031 16.35300064 11.64599991
13.41300011 16.35400009 11.47599983
13.31900024 16.35199928 11.70400047
13.32699966 16.35300064 11.69400024
13.33500004 16.35499954 11.68299961
13.34599972 16.35700035 11.67399979
13.34899998 16.35700035 11.65999985
13.35200024 16.35700035 11.64500046
13.35900021 16.35899925 11.63399982
13.37399960 16.36100006 11.62899971
13.38899994 16.36400032 11.60700035
13.32999992 16.36199951 11.68099976
13.33399963 16.36199951 11.66800022
13.34700012 16.36400032 11.65999985
13.35099983 16.36499977 11.64700031
13.36100006 16.36700058 11.63700008
13.36600018 16.36700058 11.62500000
13.37600040 16.36899948 11.61499977
13.35999966 16.37800026 11.52900028
13.35499954 16.37700081 11.50899982
13.45400047 16.60700035 10.91100025
13.46100044 16.60799980 10.89900017
13.54800034 16.62299919 10.68999958
13.54199982 16.62199974 10.67000008
13.55000019 16.62299919 10.65900040
13.55500031 16.62400055 10.64700031
13.56299973 16.62599945 10.63700008
13.56999969 16.62700081 10.62500000
13.56900024 16.62700081 10.60999966
13.46300030 16.60400009 10.50599957
13.53199959 16.61800003 10.53699970
13.45600033 16.60199928 10.45499992
13.47200012 16.60600090 10.44999981
13.56000042 16.62299919 10.43099976
13.50699997 16.62800026 10.69699955
13.51500034 16.62999916 10.68700027
13.52900028 16.63299942 10.68099976
13.56900024 16.64100075 10.69200039
13.57600021 16.64200020 10.68099976
13.58399963 16.64299965 10.67099953
13.58399963 16.64299965 10.65400028
13.57699966 16.64200020 10.63399982
13.45800018 16.61599922 10.50599957
13.46800041 16.61800003 10.45100021
13.48499966 16.62100029 10.44699955
13.52799988 16.62999916 10.44400024
13.54100037 16.63199997 10.43799973
13.56900024 16.63800049 10.43999958
13.72900009 16.62199974 10.33699989
13.72900009 16.62199974 10.32199955
13.75000000 16.62599945 10.31999969
13.74300003 16.62400055 10.30000019
13.87199974 16.64900017 10.21199989
13.60999966 16.61100006 10.29300022
13.79800034 16.64999962 10.40100002
13.85099983 16.65800095 10.23200035
13.87300014 16.65999985 9.90699959
13.91600037 16.66900063 9.91899967
13.57499981 16.61899948 10.42199993
13.52600002 16.60799980 10.32800007
13.53999996 16.61100006 10.32100010
13.56999969 16.61700058 10.32499981
13.58300018 16.62000084 10.31900024
13.59599972 16.62199974 10.31099987
13.60299969 16.62299919 10.30099964
13.86600018 16.67200089 9.89999962
13.92399979 16.68400002 9.92000008
13.56999969 16.62500000 10.42199993
13.54100037 16.61800003 10.32499981
13.56000042 16.62199974 10.32199955
14.46599960 16.37700081 8.76299953
14.46800041 16.36599922 8.76700020
14.53100014 16.35799980 8.78999996
14.49699974 16.34499931 8.77299976
14.50699997 16.33699989 8.76500034
14.33699989 16.24099922 8.62199974
14.29500008 16.20400047 9.19799995
14.29500008 16.20499992 9.18299961
14.51000023 16.29899979 8.77099991
14.34200001 16.23600006 8.62500000
14.30799961 16.19799995 9.18299961
14.30700016 16.19799995 9.16899967
14.30399990 16.19700050 9.15699959
14.29199982 16.19700050 8.94099998
14.36100006 16.23100090 8.64700031
14.35799980 16.22999954 8.63500023
