16.78599930 11.36299992 7.53399992
16.78400040 11.37600040 7.53499985
16.77799988 11.44099998 7.53499985
16.77799988 11.44600010 7.52899981
16.77799988 11.45199966 7.52299976
16.77700043 11.45699978 7.51700020
16.77700043 11.46300030 7.51100016
16.77599907 11.47000027 7.50600004
16.75900078 11.66300011 7.50400019
16.75799942 11.66899967 7.49700022
16.75699997 11.68000031 7.49599981
16.75699997 11.68500042 7.48999977
16.80500031 11.02000046 8.34899998
16.80500031 11.02000046 8.33699989
16.80500031 11.02700043 8.33300018
16.79599953 11.13199997 8.12300014
16.79599953 11.13399982 8.11400032
16.80100060 11.08300018 8.03400040
16.80200005 11.07600021 8.01599979
16.79999924 11.09000015 8.01799965
16.79500008 11.15100002 7.99499989
16.79500008 11.15499973 7.98799992
16.79400063 11.16100025 7.98199987
16.79400063 11.16100025 7.97100019
16.79400063 11.16499996 7.96400023
16.79400063 11.16399956 7.95200014
16.79400063 11.16699982 7.94299984
16.79400063 11.16800022 7.93300009
16.79400063 11.16899967 7.92299986
16.79400063 11.17199993 7.91400003
16.79299927 11.17199993 7.90399981
16.79299927 11.17399979 7.89499998
16.79299927 11.17500019 7.88500023
16.79299927 11.17800045 7.87699986
16.79299927 11.18099976 7.86899996
16.79299927 11.18500042 7.86100006
16.79299927 11.18500042 7.84999990
16.79199982 11.18900013 7.84200001
16.79199982 11.18999958 7.83300018
16.79199982 11.18799973 7.81899977
16.79199982 11.19099998 7.81099987
16.79299927 11.18400002 7.79400015
16.79199982 11.19099998 7.78999996
16.79400063 11.17399979 7.76399994
16.79400063 11.17399979 7.75299978
16.79400063 11.17700005 7.74499989
16.79299927 11.18400002 7.73999977
16.79299927 11.18999958 7.73400021
16.79100037 11.20800018 7.73999977
16.79000092 11.22200012 7.74100018
16.78899956 11.23200035 7.73899984
16.78800011 11.23600006 7.73199987
16.78800011 11.23700047 7.72100019
16.77199936 11.41899967 7.72599983
16.77300072 11.41100025 7.70900011
16.77300072 11.41199970 7.69799995
16.73800087 11.77799988 7.97399998
16.73699951 11.78999996 7.97300005
16.73699951 11.79699993 7.96799994
16.73600006 11.80399990 7.96199989
16.78199959 11.31599998 7.53200006
16.78100014 11.32299995 7.52799988
16.76899910 11.45699978 7.52299976
16.76899910 11.46199989 7.51599979
16.76799965 11.46700001 7.50899982
16.76799965 11.47299957 7.50400019
16.76700020 11.48099995 7.49900007
16.76600075 11.48999977 7.49700022
16.74900055 11.67899990 7.48999977
16.79800034 11.01500034 8.34200001
16.79899979 11.00699997 8.32400036
16.79899979 11.01000023 8.31400013
16.79800034 11.01900005 8.31299973
16.79700089 11.02600002 8.30700016
16.78899956 11.13199997 8.12199974
16.78800011 11.13700008 8.11600018
16.79599953 11.06000042 8.02200031
16.79500008 11.06900024 8.02000046
16.79400063 11.08100033 8.01900005
16.79299927 11.09099960 8.01799965
16.79199982 11.10000038 8.01500034
16.79100037 11.11299992 8.01599979
16.79000092 11.12100029 8.01099968
16.78899956 11.13099957 8.00899982
16.78899956 11.13899994 8.00599957
16.78800011 11.14900017 8.00399971
16.78700066 11.15200043 7.99499989
16.78700066 11.15499973 7.98699999
16.78700066 11.15900040 7.98000002
16.78700066 11.15900040 7.96799994
16.78700066 11.16100025 7.95900011
16.78700066 11.16399956 7.94999981
16.78599930 11.16699982 7.94199991
16.78599930 11.16899967 7.93300009
16.78599930 11.17099953 7.92299986
16.78599930 11.17199993 7.91400003
16.78599930 11.17300034 7.90399981
16.78599930 11.17199993 7.89200020
16.78599930 11.17399979 7.88299990
16.79000092 11.13099957 7.75799990
16.78899956 11.14299965 7.75699997
16.78899956 11.15100002 7.75299978
16.78800011 11.15900040 7.75000000
16.78700066 11.16600037 7.74499989
16.78700066 11.17300034 7.73999977
16.76300049 11.43299961 7.74800014
16.72999954 11.77999973 7.97399998
16.72900009 11.79100037 7.97300005
16.72900009 11.79100037 7.96099997
16.72800064 11.80099964 7.95900011
16.77400017 11.31799984 7.53299999
16.76000023 11.47200012 7.51200008
16.76000023 11.47599983 7.50500011
16.75900078 11.48200035 7.49900007
16.75900078 11.48600006 7.49200010
16.75799942 11.49600029 7.48899984
16.78800011 11.08199978 8.43200016
16.79400063 11.01500034 8.33399963
16.79500008 11.00899982 8.31499958
16.79400063 11.01900005 8.31400013
16.79299927 11.02999973 8.31299973
16.79199982 11.03899956 8.31000042
16.78199959 11.15100002 8.25500011
16.78499985 11.13500023 8.11600018
16.79199982 11.05900002 8.02299976
16.79100037 11.07100010 8.02299976
16.79000092 11.07900047 8.02000046
16.78800011 11.10400009 8.03100014
16.78599930 11.12500000 8.03899956
16.78499985 11.13799953 8.03999996
16.78499985 11.13099957 8.02200031
16.78499985 11.13399982 8.01399994
16.78400040 11.13899994 8.00699997
16.78400040 11.14799976 8.00399971
16.78300095 11.15299988 7.99800014
16.78300095 11.15400028 7.98799992
16.78300095 11.15699959 7.97900009
16.78300095 11.15999985 7.97100019
16.78300095 11.16300011 7.96199989
16.78300095 11.16399956 7.95200014
16.78300095 11.16300011 7.94000006
16.78199959 11.16600037 7.93200016
16.78199959 11.17300034 7.92700005
16.78199959 11.16899967 7.91300011
16.79000092 11.08600044 7.76300001
16.78899956 11.10499954 7.76900005
16.78800011 11.10999966 7.76200008
16.78700066 11.12199974 7.76200008
16.78599930 11.13199997 7.76000023
16.78599930 11.14000034 7.75600004
16.78499985 11.15100002 7.75500011
16.75799942 11.43599987 7.75199986
16.77099991 11.31299973 7.53000021
16.75600052 11.47599983 7.50699997
16.75499916 11.48099995 7.50000000
16.75499916 11.48499966 7.49200010
16.75399971 11.49199963 7.48799992
16.75399971 11.49800014 7.48299980
16.75300026 11.51099968 7.48199987
16.75099945 11.52700043 7.44299984
16.78100014 11.07499981 8.43200016
16.78100014 11.07499981 8.42000008
16.78599930 11.03100014 8.30900002
16.78499985 11.04100037 8.30599976
16.78400040 11.04899979 8.30200005
16.78400040 11.05300045 8.29500008
16.78300095 11.06099987 8.28999996
16.77499962 11.14799976 8.25800037
16.77499962 11.14799976 8.24699974
16.77799988 11.12699986 8.12600040
16.77799988 11.13000011 8.11699963
16.77700043 11.13199997 8.10700035
16.77700043 11.13399982 8.09799957
16.77700043 11.13500023 8.08800030
16.77700043 11.13899994 8.07999992
16.77700043 11.13899994 8.06799984
16.77700043 11.14099979 8.05900002
16.77599907 11.14500046 8.05200005
16.77599907 11.14700031 8.04199982
16.77599907 11.14900017 8.03400040
16.77599907 11.15100002 8.02400017
16.77599907 11.14999962 8.01200008
16.77599907 11.14900017 7.99900007
16.77499962 11.16399956 7.92500019
16.78300095 11.08800030 7.76999998
16.78199959 11.09599972 7.76599979
16.78100014 11.10400009 7.76300001
16.78000069 11.12100029 7.76700020
16.74699974 11.48600006 7.49900007
16.74699974 11.48799992 7.48999977
16.74699974 11.49400043 7.48400021
16.74600029 11.50000000 7.47900009
16.74500084 11.50800037 7.47499990
16.74399948 11.51700020 7.47200012
16.74300003 11.52799988 7.44899988
16.74399948 11.52799988 7.43800020
16.77400017 11.07299995 8.42599964
16.77300072 11.07699966 8.41800022
16.77300072 11.07699966 8.40600014
16.77599907 11.05000019 8.30000019
16.77599907 11.05700016 8.29500008
16.77499962 11.06299973 8.28999996
16.77499962 11.06900024 8.28400040
16.77499962 11.07299995 8.27499962
16.76799965 11.14200020 8.24899960
16.76899910 11.13899994 8.23499966
16.77099991 11.11400032 8.19999981
16.77099991 11.11299992 8.18799973
16.77099991 11.11600018 8.17899990
16.77099991 11.11800003 8.17000008
16.77099991 11.11999989 8.15999985
16.77099991 11.12100029 8.14999962
16.77099991 11.12199974 8.14000034
16.77000046 11.12600040 8.13199997
16.77000046 11.12800026 8.12300014
16.77000046 11.13000011 8.11299992
16.77000046 11.13399982 8.10499954
16.77000046 11.13300037 8.09300041
16.77000046 11.13599968 8.08600044
16.76899910 11.13799953 8.07499981
16.76899910 11.13899994 8.06499958
16.76899910 11.14200020 8.05700016
16.76899910 11.14599991 8.04899979
16.77599907 11.08399963 7.77299976
16.77599907 11.08600044 7.76499987
16.77199936 11.12399960 7.77699995
16.69799995 11.90699959 8.02900028
16.69700050 11.91199970 8.02200031
16.73900032 11.49300003 7.50099993
16.73900032 11.49400043 7.49200010
16.73800087 11.49699974 7.48299980
16.73800087 11.50300026 7.47800016
16.73699951 11.51000023 7.47300005
16.73699951 11.51599979 7.46700001
16.73600006 11.52400017 7.46299982
16.73500061 11.53400040 7.46099997
16.73500061 11.52999973 7.44700003
16.72200012 11.67300034 7.48799992
16.77000046 11.07499981 8.41499996
16.77000046 11.07600021 8.40499973
16.77199936 11.06000042 8.28600025
16.77099991 11.06599998 8.27999973
16.77000046 11.07499981 8.27600002
16.77000046 11.08199978 8.27200031
16.76799965 11.10200024 8.23400021
16.76799965 11.10700035 8.22599983
16.76799965 11.10999966 8.21800041
16.76700020 11.11200047 8.20800018
16.76700020 11.11299992 8.19799995
16.76700020 11.11499977 8.18799973
16.76700020 11.11400032 8.17700005
16.76700020 11.11699963 8.16800022
16.76700020 11.11800003 8.15799999
16.76700020 11.12100029 8.14900017
16.76700020 11.12300014 8.13899994
16.76600075 11.12600040 8.13099957
16.76600075 11.12699986 8.12100029
16.76600075 11.13099957 8.11299992
16.76600075 11.13099957 8.10099983
16.76600075 11.13099957 8.09000015
16.76600075 11.13500023 8.08300018
16.76499939 11.14999962 8.06299973
16.77300072 11.07900047 7.76800013
16.69400024 11.90699959 8.02700043
16.69400024 11.90900040 8.01900005
16.73500061 11.48700047 7.50600004
16.73500061 11.48999977 7.49900007
16.73500061 11.49400043 7.48999977
16.73399925 11.49800014 7.48400021
16.73399925 11.50500011 7.47800016
16.73299980 11.51000023 7.47200012
16.73200035 11.51599979 7.46700001
16.73200035 11.52099991 7.46000004
16.73100090 11.53100014 7.45699978
16.73100090 11.53299999 7.44899988
16.72999954 11.54500008 7.44799995
16.71800041 11.66800022 7.50400019
16.71800041 11.67300034 7.49700022
16.71800041 11.67099953 7.48500013
16.76300049 11.06700039 8.39900017
16.76300049 11.07400036 8.39500046
16.76300049 11.07400036 8.38199997
16.76300049 11.07999992 8.27299976
16.76199913 11.08699989 8.26900005
16.76199913 11.09200001 8.26200008
16.76099968 11.09700012 8.25500011
16.76099968 11.10000038 8.24600029
16.76099968 11.10299969 8.23799992
16.76000023 11.10499954 8.22900009
16.76000023 11.10799980 8.22000027
16.76000023 11.10999966 8.21100044
16.76000023 11.11299992 8.20199966
16.76000023 11.11499977 8.19200039
16.76000023 11.11499977 8.18099976
16.76000023 11.11699963 8.17099953
16.76000023 11.11900043 8.16199970
16.75900078 11.12100029 8.15200043
16.76000023 11.11999989 8.14000034
16.75699997 11.15499973 8.07100010
16.68700027 11.89200020 8.04199982
16.68600082 11.89999962 8.03699970
16.68600082 11.90499973 8.02999973
16.72900009 11.47099972 7.50699997
16.72800064 11.48200035 7.50500011
16.72500038 11.51200008 7.47700024
16.72500038 11.51799965 7.47100019
16.72500038 11.52200031 7.46400023
16.72400093 11.52600002 7.45699978
16.72400093 11.53199959 7.45100021
16.72299957 11.53899956 7.44600010
16.72200012 11.54599953 7.44199991
16.71100044 11.66600037 7.48400021
16.70999908 11.67099953 7.47800016
16.75600052 11.07100010 8.39000034
16.75600052 11.07199955 8.37899971
16.75499916 11.07900047 8.30599976
16.75499916 11.08800030 8.30200005
16.75499916 11.08899975 8.29199982
16.75399971 11.09099960 8.28199959
16.75399971 11.09200001 8.27200031
16.75399971 11.09399986 8.26200008
16.75399971 11.09799957 8.25399971
16.75399971 11.10099983 8.24499989
16.75300026 11.10400009 8.23799992
16.75399971 11.10200024 8.22399998
16.75300026 11.10400009 8.21500015
16.75000000 11.13899994 8.23600006
16.75399971 11.09899998 8.16499996
16.75300026 11.10900021 8.16199970
16.68000031 11.88300037 8.04399967
16.67900085 11.89299965 8.03999996
16.72200012 11.46399975 7.51100016
16.72100067 11.47500038 7.50899982
16.71699905 11.51399994 7.46700001
16.71599960 11.52600002 7.46600008
16.71599960 11.53100014 7.45900011
16.71599960 11.53600025 7.45200014
16.71500015 11.53699970 7.44299984
16.71400070 11.54899979 7.44199991
16.71299934 11.55799961 7.43900013
16.70299911 11.66499996 7.48199987
16.70299911 11.66699982 7.47300005
16.75200081 11.06999969 8.37800026
16.75200081 11.06900024 8.36600018
16.75200081 11.06700039 8.35299969
16.75200081 11.07199955 8.34599972
16.75200081 11.07600021 8.33800030
16.75200081 11.07699966 8.32699966
16.75099945 11.08100033 8.31900024
16.75099945 11.08500004 8.31200027
16.75099945 11.08399963 8.29899979
16.75099945 11.08800030 8.29100037
16.75099945 11.09000015 8.28199959
16.75000000 11.09399986 8.27400017
16.75000000 11.09500027 8.26399994
16.75000000 11.09399986 8.25100040
16.75000000 11.10099983 8.16699982
16.74900055 11.10799980 8.16300011
16.67499924 11.88599968 8.04699993
16.67499924 11.89200020 8.04100037
16.71800041 11.46500015 7.51200008
16.71699905 11.47200012 7.50699997
16.71199989 11.53100014 7.46000004
16.71199989 11.53400040 7.45200014
16.71100044 11.53899956 7.44500017
16.71100044 11.54500008 7.44000006
16.70999908 11.55399990 7.43699980
16.69899940 11.66600037 7.47399998
16.74600029 11.04899979 8.38500023
16.74600029 11.05799961 8.38199997
16.74500084 11.06000042 8.37300014
16.74500084 11.06400013 8.36600018
16.74500084 11.06599998 8.35499954
16.74500084 11.06900024 8.34700012
16.74399948 11.07299995 8.33899975
16.74399948 11.07499981 8.32900047
16.74399948 11.07800007 8.31999969
16.74399948 11.07800007 8.30900002
16.74399948 11.08399963 8.30300045
16.74300003 11.08399963 8.29199982
16.74399948 11.08800030 8.17000008
16.74300003 11.09599972 8.16600037
16.66900063 11.86900043 8.08100033
16.66799927 11.87899971 8.07900047
16.66699982 11.88099957 8.06900024
16.66699982 11.88300037 8.05900002
16.66699982 11.88399982 8.05000019
16.66699982 11.88599968 8.03899956
16.71100044 11.45600033 7.51900005
16.70999908 11.46399975 7.51499987
16.70100021 11.55599976 7.47399998
16.70299911 11.54399967 7.45300007
16.70299911 11.54500008 7.44399977
16.70199966 11.55300045 7.43900013
16.70100021 11.55900002 7.43400002
16.70000076 11.56700039 7.42999983
16.69099998 11.65799999 7.47100019
16.73999977 11.03699970 8.40600014
16.73999977 11.04199982 8.39900017
16.73900032 11.04800034 8.39299965
16.73900032 11.05200005 8.38500023
16.73800087 11.05799961 8.37899971
16.73800087 11.06000042 8.36999989
16.73800087 11.06099987 8.35999966
16.73800087 11.06499958 8.35200024
16.73699951 11.07800007 8.31700039
16.73600006 11.08300018 8.31099987
16.73699951 11.08399963 8.17500019
16.65999985 11.87699986 8.05099964
16.65900040 11.88799953 8.05000019
16.70400047 11.45800018 7.51800013
16.69300079 11.56000042 7.51599979
16.69400024 11.55900002 7.50400019
16.69400024 11.55799961 7.49300003
16.69400024 11.55700016 7.48199987
16.69400024 11.55900002 7.47300005
16.69400024 11.55700016 7.46099997
16.69400024 11.55099964 7.44600010
16.69400024 11.55500031 7.43800020
16.69499969 11.55000019 7.42399979
16.73699951 11.03299999 8.42300034
16.73600006 11.03499985 8.41300011
16.73600006 11.03800011 8.40499973
16.73600006 11.04399967 8.39900017
16.73500061 11.04800034 8.39099979
16.73500061 11.05300045 8.38399982
16.73500061 11.05200005 8.37199974
16.73299980 11.07900047 8.31700039
16.73299980 11.08199978 8.17099953
16.65699959 11.86699963 8.05300045
16.65600014 11.87399960 8.04699993
16.65500069 11.88700008 8.04699993
16.69899940 11.45699978 7.51599979
16.69000053 11.55300045 7.53000021
16.68899918 11.55700016 7.52299976
16.68899918 11.55799961 7.51200008
16.68899918 11.55900002 7.50299978
16.69000053 11.55799961 7.49200010
16.69000053 11.55500031 7.47800016
16.69000053 11.55399990 7.46799994
16.69000053 11.55599976 7.45800018
16.69000053 11.55500031 7.44700003
16.69099998 11.54500008 7.42899990
16.68400002 11.61299992 7.42999983
16.68000031 11.65499973 7.45300007
16.72999954 11.02400017 8.43099976
16.72999954 11.02700043 8.42199993
16.72900009 11.03299999 8.41600037
16.72900009 11.03400040 8.40499973
16.72599983 11.06999969 8.32299995
16.72599983 11.07600021 8.31799984
16.72699928 11.06799984 8.17399979
16.72599983 11.07699966 8.17099953
16.64999962 11.85700035 8.04800034
16.64900017 11.86999989 8.04699993
16.64699936 11.88799953 8.05099964
16.69300079 11.44200039 7.51700020
16.69199944 11.45100021 7.51399994
16.68199921 11.55599976 7.55700016
16.68199921 11.55500031 7.54600000
16.68199921 11.55500031 7.53599977
16.68199921 11.55900002 7.52799988
16.72299957 11.02200031 8.42599964
16.71800041 11.07199955 8.32299995
16.71899986 11.06900024 8.17199993
16.64200020 11.84799957 8.06099987
16.64200020 11.85400009 8.05399990
16.64200020 11.85400009 8.04300022
16.63800049 11.88899994 8.04899979
16.68499947 11.44400024 7.51599979
16.67499924 11.53999996 7.57299995
16.67399979 11.54899979 7.57100010
16.67399979 11.55399990 7.56400013
16.67300034 11.55599976 7.55499983
16.67399979 11.55200005 7.54099989
16.66399956 11.65400028 7.51700020
16.67200089 11.57999992 7.42600012
16.71500015 11.06799984 8.32800007
16.71500015 11.06900024 8.31700039
16.71599960 11.06499958 8.17599964
16.63800049 11.85200024 8.06099987
16.63899994 11.84599972 8.04500008
16.63500023 11.88399982 8.04300022
16.68099976 11.43999958 7.52099991
16.68099976 11.44600010 7.51499987
16.67099953 11.53800011 7.58099985
16.67099953 11.54399967 7.57399988
16.67000008 11.55000019 7.56899977
16.66900063 11.55599976 7.56300020
16.70800018 11.06499958 8.33100033
16.63100052 11.83800030 8.04399967
16.66300011 11.53999996 7.65100002
16.66300011 11.54100037 7.64099979
16.66300011 11.54300022 7.63199997
16.66200066 11.54599953 7.62300014
16.67399979 11.43400002 7.52099991
16.66399956 11.53199959 7.59100008
16.66399956 11.53699970 7.58400011
16.66200066 11.55200005 7.58599997
16.66200066 11.55599976 7.56799984
16.65299988 11.64799976 7.52500010
16.70000076 11.06000042 8.33600044
16.70000076 11.06299973 8.32600021
16.62299919 11.83100033 8.03499985
16.65500069 11.53199959 7.66400003
16.65500069 11.53699970 7.65700006
16.65500069 11.53699970 7.64699984
16.65500069 11.53999996 7.63800001
16.65500069 11.53899956 7.62699986
16.65399933 11.54800034 7.60300016
16.65299988 11.55799961 7.56799984
16.69799995 11.05200005 8.34099960
16.69700050 11.06099987 8.33899975
16.69700050 11.06099987 8.32699966
16.65200043 11.53100014 7.65500021
16.65200043 11.53600025 7.64799976
16.66500092 11.41199970 7.51399994
16.66399956 11.42099953 7.51100016
16.65099907 11.54699993 7.60400009
16.64999962 11.55300045 7.56599998
16.69099998 11.05300045 8.35000038
16.69000053 11.05700016 8.34200001
16.65500069 11.43200016 7.53700018
16.65800095 11.40799999 7.50699997
16.65699959 11.41699982 7.50400019
16.63400078 11.64299965 7.53900003
16.63299942 11.64500046 7.53100014
16.68300056 11.05200005 8.34700012
16.62500000 11.64200020 7.53700018
16.62500000 11.64000034 7.52500010
16.67900085 11.05200005 8.34799957
16.62100029 11.64099979 7.53599977
16.67200089 11.04899979 8.35999966
16.67200089 11.05000019 8.35000038
16.61400032 11.63300037 7.54400015
16.61400032 11.63700008 7.53700018
16.66500092 11.04899979 8.35700035
16.66500092 11.04899979 8.34599972
16.60600090 11.63500023 7.54300022
16.65900040 11.06000042 8.37500000
16.66099930 11.04399967 8.34899998
16.65399933 11.03800011 8.35999966
16.65399933 11.03899956 8.34899998
16.64699936 11.03600025 8.35400009
16.64699936 11.03899956 8.34500027
16.64399910 11.03299999 8.35099983
16.64299965 11.03899956 8.34500027
16.63800049 11.01700020 8.35099983
16.63699913 11.02600002 8.34899998
16.63500023 11.03499985 8.34599972
16.63100052 11.01599979 8.34899998
16.62999916 11.02900028 8.34899998
16.62599945 11.02499962 8.34500027
16.61800003 11.02999973 8.34399986
16.61100006 11.02900028 8.34399986
16.60799980 11.02200031 8.34200001
16.60000038 11.02600002 8.34300041
16.59300041 11.02299976 8.34000015
15.72900009 12.41100025 6.82000017
15.72799969 12.41399956 6.81199980
15.72700024 12.42099953 6.80600023
15.78199959 12.13199997 6.58300018
15.77999973 12.14099979 6.57900000
15.73099995 12.35400009 6.84399986
15.71100044 12.45800018 6.88299990
15.71100044 12.46300030 6.87599993
15.72200012 12.40400028 6.81599998
15.71899986 12.42000008 6.80600023
15.77400017 12.13000011 6.58199978
15.70699978 12.45699978 6.88399982
15.70499992 12.46500015 6.87900019
15.71300030 12.42199993 6.80900002
15.71399975 12.41800022 6.79699993
15.69900036 12.44999981 6.89099979
15.69900036 12.44999981 6.88100004
15.69499969 12.47000027 6.88399982
15.69499969 12.47099972 6.87400007
15.70499992 12.41699982 6.80800009
15.70600033 12.41499996 6.79600000
15.68999958 12.45400047 6.90299988
15.69699955 12.42000008 6.80800009
15.69600010 12.42099953 6.79799986
15.68700027 12.44499969 6.90000010
15.69099998 12.42399979 6.80299997
15.68200016 12.42399979 6.80800009
15.65100002 12.25100040 6.55100012
15.64900017 12.26000023 6.54799986
15.64099979 12.25899982 6.54699993
15.64000034 12.26399994 6.54099989
16.62700081 11.63500023 7.39300013
16.62599945 11.63899994 7.38600016
16.62500000 11.64599991 7.38199997
16.62500000 11.65200043 7.37599993
16.95400047 11.85799980 8.04699993
16.92600060 12.09700012 7.79400015
16.92600060 12.09700012 7.78299999
16.93300056 11.86299992 8.04599953
16.93199921 11.86999989 8.03999996
16.91500092 12.13500023 7.85400009
16.91699982 12.10000038 7.79300022
16.91699982 12.10700035 7.78700018
16.91200066 12.17599964 7.83099985
16.92399979 11.87300014 8.05200005
16.92399979 11.87500000 8.04199982
16.90600014 12.13899994 7.85400009
16.90600014 12.13899994 7.84299994
16.90600014 12.14099979 7.83400011
16.90800095 12.11100006 7.79899979
16.90600014 12.13199997 7.80499983
16.90500069 12.15499973 7.81199980
16.90299988 12.13599968 7.85300016
16.90200043 12.13799953 7.84299994
16.90200043 12.14000034 7.83300018
16.90200043 12.14099979 7.82299995
16.90399933 12.11999989 7.79600000
16.90200043 12.14099979 7.80100012
16.89399910 12.13500023 7.81300020
16.89399910 12.13599968 7.80200005
16.89200020 12.15900040 7.80900002
16.89500046 11.98900032 8.22999954
16.89500046 11.98799992 8.21800041
16.89500046 11.99199963 8.21000004
16.90099907 11.90900040 8.08300018
16.90099907 11.90999985 8.07299995
16.90299988 11.88700008 8.04100037
16.90299988 11.89500046 8.03699970
16.88599968 12.13199997 7.80600023
16.88599968 12.14200020 7.80299997
16.89200020 11.98200035 8.22099972
16.89800072 11.90400028 8.08699989
16.89800072 11.90900040 8.07900047
16.89800072 11.90600014 8.06599998
16.89900017 11.89599991 8.04599953
16.89900017 11.89900017 8.03699970
16.88199997 12.13500023 7.80499983
16.88100052 12.14500046 7.80200005
16.88400078 11.98099995 8.20100021
16.88299942 11.98600006 8.19400024
16.88400078 11.97500038 8.17300034
16.88999939 11.90100002 8.05399990
16.88999939 11.89900017 8.04100037
16.88999939 11.90699959 8.03600025
16.87299919 12.14599991 7.80700016
16.87599945 11.97999954 8.18500042
16.87599945 11.97799969 8.17199993
16.88100052 11.90900040 8.03499985
16.86400032 12.14700031 7.80399990
16.86400032 12.14799976 7.79300022
16.87599945 11.92700005 8.16499996
16.87199974 11.97200012 8.16800022
16.87199974 11.97399998 8.15900040
16.87700081 11.90900040 8.03600025
16.87700081 11.90999985 8.02499962
16.86000061 12.14799976 7.80600023
16.86000061 12.15400028 7.80000019
16.86700058 11.92399979 8.17199993
16.86700058 11.93000031 8.16600037
16.86599922 11.93799973 8.16100025
16.86599922 11.94400024 8.15499973
16.86499977 11.96199989 8.15799999
16.86499977 11.96199989 8.14599991
16.86899948 11.91199970 8.03600025
16.85199928 12.14999962 7.80499983
16.85199928 12.14999962 7.79400015
16.85799980 11.93500042 8.15600014
16.85799980 11.93700027 8.14700031
16.85700035 11.94999981 8.14599991
16.85700035 11.95400047 8.13799953
16.85600090 11.95800018 8.13099957
16.86000061 11.91499996 8.03699970
16.86000061 11.92700005 7.90199995
16.84300041 12.14999962 7.80399990
16.84300041 12.15299988 7.79500008
16.85300064 11.95100021 8.14500046
16.85300064 11.95400047 8.13599968
16.85300064 11.95699978 8.12800026
16.85600090 11.91499996 8.03600025
16.85600090 11.91800022 8.02700043
16.85600090 11.92399979 7.89799976
16.83900070 12.14999962 7.80299997
16.83900070 12.15400028 7.79400015
16.84399986 11.96000004 8.13300037
16.84499931 11.95499992 8.11800003
16.84499931 11.95699978 8.10799980
16.84700012 11.92399979 8.03499985
16.84799957 11.92399979 7.88999987
16.82999992 12.15100002 7.80600023
16.82999992 12.15799999 7.80000019
16.83699989 11.95100021 8.10799980
16.83600044 11.95400047 8.09899998
16.83900070 11.92099953 8.03699970
16.83900070 11.92800045 8.03199959
16.84000015 11.92399979 7.88299990
16.82200050 12.15400028 7.80200005
16.83300018 11.94900036 8.10299969
16.83300018 11.95400047 8.09700012
16.83300018 11.95400047 8.08600044
16.83499908 11.92300034 8.03600025
16.83499908 11.93099976 8.03199959
16.83600044 11.92500019 7.88199997
16.81800079 12.14700031 7.80600023
16.81800079 12.15699959 7.80200005
16.82500076 11.95199966 8.08899975
16.82500076 11.95499992 8.07999992
16.82699966 11.92800045 8.03499985
16.82699966 11.93200016 8.02700043
16.82799911 11.92399979 7.87500000
16.80500031 12.21100044 7.97399998
16.80500031 12.21000004 7.96199989
16.80999947 12.15400028 7.80499983
16.80900002 12.16199970 7.80000019
16.80299950 12.23999977 7.78399992
16.80200005 12.25100040 7.78100014
16.81699944 11.95300007 8.07699966
16.81599998 11.95400047 8.06700039
16.81800079 11.93599987 8.04100037
16.81800079 11.93999958 8.03199959
16.81900024 11.92700005 7.86600018
16.79599953 12.20800018 7.95800018
16.79599953 12.21000004 7.94899988
16.80100060 12.14999962 7.80000019
16.80100060 12.15999985 7.79799986
16.79599953 12.21500015 7.78499985
16.79500008 12.23099995 7.78700018
16.79400063 12.24100018 7.78399992
16.81299973 11.94900036 8.07299995
16.81299973 11.95300007 8.06499958
16.81299973 11.95100021 8.05099964
16.81399918 11.93999958 8.03100014
16.81500053 11.93000031 7.86600018
16.79199982 12.20300007 7.95300007
16.79199982 12.20800018 7.94600010
16.79800034 12.14799976 7.79799986
16.79700089 12.15999985 7.79600000
16.79500008 12.18299961 7.78100014
16.79400063 12.19200039 7.77799988
16.79199982 12.21199989 7.78200006
16.79100037 12.22500038 7.78100014
16.80500031 11.94699955 8.05399990
16.80500031 11.94499969 8.04100037
16.80500031 11.94400024 8.02900028
16.80699921 11.92700005 7.85799980
16.78400040 12.20300007 7.93599987
16.78899956 12.15600014 7.79899979
16.78800011 12.16100025 7.79099989
16.78700066 12.17300034 7.77899981
16.78700066 12.17800045 7.77199984
16.79700089 11.94299984 8.04699993
16.79700089 11.94600010 8.03800011
16.79700089 11.94799995 8.02900028
16.79899979 11.92700005 7.85500002
16.79899979 11.92399979 7.84200001
16.77599907 12.19999981 7.94199991
16.77599907 12.19799995 7.92899990
16.77700043 12.19099998 7.91300011
16.77700043 12.19099998 7.90100002
16.78000069 12.15699959 7.79600000
16.78000069 12.15900040 7.78700018
16.77899933 12.17500019 7.77699995
16.79299927 11.93799973 8.06299973
16.79299927 11.94200039 8.05399990
16.79299927 11.94299984 8.04399967
16.79299927 11.94400024 8.03299999
16.79199982 11.94799995 8.02600002
16.79199982 11.95100021 8.01700020
16.79500008 11.92399979 7.84999990
16.79500008 11.92800045 7.84100008
16.77099991 12.20400047 7.95300007
16.77199936 12.19999981 7.93800020
16.77199936 12.19299984 7.92199993
16.77199936 12.19299984 7.91099977
16.77300072 12.18599987 7.89400005
16.77300072 12.18500042 7.88100004
16.77300072 12.18400002 7.86899996
16.77499962 12.15999985 7.79500008
16.77599907 12.15799999 7.78299999
16.77400017 12.17300034 7.77199984
16.78700066 11.90499973 8.12899971
16.78800011 11.89599991 8.10999966
16.78800011 11.90100002 8.10299969
16.78700066 11.90900040 8.09799957
16.78800011 11.89900017 8.07800007
16.78499985 11.93400002 8.06299973
16.78499985 11.93299961 8.05099964
16.78499985 11.93999958 8.04500008
16.78499985 11.93999958 8.03299999
16.78400040 11.94499969 8.02700043
16.78400040 11.94999981 8.01900005
16.78400040 11.95100021 8.00899982
16.78899956 11.89999962 7.82299995
16.78700066 11.92899990 7.83500004
16.76300049 12.20499992 7.96799994
16.76300049 12.20600033 7.95900011
16.76499939 12.18200016 7.88299990
16.76499939 12.17899990 7.86899996
16.76499939 12.17700005 7.85599995
16.76799965 12.15200043 7.79300022
16.76700020 12.16100025 7.78900003
16.76700020 12.15900040 7.77600002
16.76700020 12.16499996 7.76900005
16.77799988 12.04100037 7.58500004
16.77599907 11.94900036 8.01700020
16.77599907 11.95100021 8.00699997
16.77599907 11.95499992 8.00000000
16.77300072 11.98700047 7.98099995
16.78000069 11.91300011 7.82000017
16.77799988 11.93000031 7.82299995
16.75799942 12.17000008 7.84899998
16.75799942 12.16899967 7.83799982
16.75799942 12.16499996 7.82299995
16.75799942 12.16399956 7.81099987
16.75900078 12.15999985 7.79699993
16.75900078 12.15799999 7.78499985
16.75900078 12.16100025 7.77600002
16.77400017 11.99400043 7.60099983
16.77400017 11.99699974 7.59200001
16.76899910 12.04500008 7.58699989
16.76799965 12.06400013 7.57999992
16.76799965 12.06400013 7.56899977
16.77199936 11.94799995 8.00399971
16.77099991 11.95300007 7.99700022
16.77099991 11.95699978 7.98799992
16.76899910 11.98700047 7.97900009
16.77599907 11.90900040 7.81599998
16.77400017 11.92599964 7.81899977
16.77400017 11.92800045 7.80900002
16.75399971 12.16100025 7.85200024
16.75300026 12.16800022 7.84600019
16.75300026 12.16800022 7.83500004
16.75399971 12.16499996 7.82299995
16.75399971 12.16300011 7.80999994
16.75399971 12.15900040 7.79500008
16.75399971 12.15600014 7.78200006
16.75399971 12.15900040 7.77299976
16.76899910 11.99199963 7.59800005
16.76799965 12.00800037 7.59999990
16.76799965 12.01200008 7.59299994
16.76499939 12.04399967 7.58500004
16.76300049 12.06000042 7.57600021
16.76300049 12.06400013 7.56799984
16.76300049 11.95699978 7.97200012
16.76099968 11.97799969 7.96700001
16.76600075 11.93099976 7.81799984
16.76499939 11.93900013 7.81300020
16.74699974 12.15200043 7.77400017
16.74600029 12.15799999 7.76700020
16.76000023 12.00300026 7.60099983
16.75900078 12.01299953 7.59800005
16.75900078 12.01900005 7.59200001
16.75699997 12.04100037 7.58799982
16.75600052 12.04899979 7.58300018
16.75600052 12.05300045 7.57499981
16.76000023 11.90499973 7.89400005
16.75799942 11.93299961 7.81699991
16.75699997 11.93999958 7.81199980
16.75699997 11.94799995 7.80700016
16.73900032 12.15200043 7.77099991
16.73900032 12.15400028 7.76100016
16.75200081 12.01399994 7.59700012
16.75099945 12.02600002 7.59499979
16.75000000 12.03499985 7.59200001
16.75000000 12.03999996 7.58599997
16.74900055 12.04800034 7.58099985
16.75300026 11.93999958 7.81300020
16.75200081 11.95100021 7.80999994
16.73399925 12.15100002 7.77099991
16.73399925 12.15299988 7.76200008
16.74600029 12.02700043 7.59800005
16.74500084 12.03800011 7.59600019
16.74399948 12.04399967 7.59000015
16.74399948 12.04100037 7.57600021
16.74500084 11.94099998 7.88500023
16.74300003 11.95400047 7.88500023
16.74300003 11.95800018 7.80999994
16.72699928 12.14500046 7.76100016
16.72599983 12.14799976 7.75299978
16.73699951 12.03400040 7.59800005
16.73699951 12.03899956 7.59100008
16.73600006 11.95100021 7.88000011
16.73500061 11.96100044 7.87699986
16.73399925 11.97500038 7.87699986
16.73299980 11.97900009 7.86999989
16.73299980 11.98099995 7.86100006
16.73600006 11.95600033 7.80700016
16.71899986 12.14599991 7.74900007
16.71899986 12.14599991 7.73699999
16.72900009 12.03899956 7.59999990
16.73299980 11.92899990 7.97100019
16.72999954 11.96399975 7.87699986
16.72900009 11.97099972 7.87099981
16.72900009 11.97799969 7.86600018
16.72900009 11.98200035 7.85799980
16.72800064 11.98700047 7.85099983
16.72800064 11.99100018 7.84299994
16.73100090 11.96300030 7.80999994
16.71400070 12.14599991 7.74599981
16.71400070 12.14999962 7.73799992
16.72500038 12.03299999 7.60300016
16.72400093 12.03999996 7.59700012
16.72500038 11.92899990 7.99900007
16.72400093 11.93599987 7.99399996
16.72400093 11.93599987 7.98299980
16.72100067 11.97700024 7.87099981
16.71999931 11.97999954 7.86299992
16.71999931 11.98299980 7.85400009
16.71999931 11.98600006 7.84600019
16.71999931 11.98900032 7.83599997
16.71999931 11.98700047 7.80200005
16.71899986 12.00199986 7.80299997
16.71800041 12.00699997 7.79600000
16.70599937 12.14299965 7.73899984
16.70599937 12.14599991 7.73000002
16.71599960 12.04100037 7.60400009
16.71699905 11.92000008 8.01299953
16.71699905 11.92800045 8.00800037
16.71699905 11.92599964 7.99499989
16.71400070 11.96700001 7.85099983
16.71199989 11.97999954 7.84999990
16.71199989 11.98200035 7.84000015
16.71199989 11.98900032 7.83500004
16.71100044 11.99499989 7.80700016
16.71100044 12.00300026 7.80200005
16.70999908 12.00800037 7.79500008
16.70999908 12.01299953 7.78800011
16.70899963 12.02099991 7.78399992
16.70899963 12.02499962 7.77600002
16.69799995 12.14099979 7.73500013
16.69799995 12.14500046 7.72700024
16.70800018 12.04100037 7.63500023
16.70899963 12.03199959 7.61700010
16.70800018 12.03800011 7.61199999
16.70800018 12.04199982 7.60300016
16.71299934 11.92099953 8.01599979
16.71299934 11.92399979 8.00699997
16.70700073 11.99600029 7.80999994
16.70599937 12.00300026 7.80399990
16.70599937 12.00800037 7.79699993
16.70499992 12.01200008 7.78900003
16.70400047 12.02000046 7.78499985
16.70400047 12.02400017 7.77699995
16.69400024 12.14099979 7.72700024
16.69400024 12.14099979 7.71600008
16.39299965 11.81299973 7.48000002
16.39200020 11.82100010 7.47599983
16.38999939 11.83600044 7.46600008
16.38299942 11.81799984 7.47100019
16.38199997 11.83100033 7.47100019
16.38100052 11.83899975 7.46700001
16.37999916 11.84200001 7.45900011
16.37800026 11.83199978 7.47300005
16.37700081 11.83699989 7.46700001
16.37599945 11.84599972 7.46299982
16.37599945 11.84899998 7.45499992
16.36700058 11.85200024 7.46199989
16.36700058 11.85299969 7.45200014
16.36599922 11.85799980 7.44600010
16.36599922 11.86499977 7.44000006
16.35799980 11.86100006 7.48000002
16.35799980 11.85700035 7.46500015
16.35899925 11.85200024 7.45200014
16.35799980 11.85700035 7.44399977
16.35300064 11.86100006 7.50000000
16.35300064 11.86299992 7.49100018
16.35300064 11.86200047 7.48000002
16.35300064 11.86299992 7.46999979
16.35400009 11.85400009 7.45300007
16.34499931 11.86600018 7.50699997
16.34499931 11.86499977 7.49499989
16.33699989 11.86299992 7.50099993
16.67099953 12.07100010 7.74100018
16.67000008 12.07900047 7.73699999
16.67200089 12.06400013 7.62699986
16.67300034 12.05500031 7.61000013
16.66600037 12.03899956 7.60599995
16.66399956 12.06000042 7.61199999
15.76500034 12.45300007 6.85099983
15.76599979 12.44799995 6.83799982
15.77099991 12.42099953 6.80900002
15.81799984 12.16899967 6.57100010
15.81499958 12.18000031 6.56799984
15.81400013 12.19099998 6.56599998
15.80900002 12.21700001 6.57299995
15.80500031 12.23600006 6.57499981
15.80399990 12.24300003 6.57000017
15.75500011 12.45600033 6.85200024
15.77999973 12.32299995 6.74200010
15.76299953 12.41800022 6.79500008
15.80900002 12.17199993 6.57100010
15.80700016 12.18000031 6.56699991
15.80300045 12.20100021 6.57100010
15.80099964 12.21399975 6.56899977
15.77200031 12.37100029 6.43400002
15.75000000 12.45899963 6.85599995
15.75800037 12.41800022 6.79799986
15.80399990 12.17199993 6.57299995
15.80399990 12.17099953 6.56300020
15.76900005 12.36600018 6.43400002
15.76700020 12.37300014 6.42799997
15.74199963 12.45600033 6.86800003
15.74199963 12.45499992 6.85699987
15.75000000 12.41300011 6.81799984
15.75000000 12.41300011 6.80800009
15.79899979 12.15600014 6.57600021
15.79699993 12.16100025 6.57000017
15.75699997 12.38199997 6.42700005
15.74400043 12.40299988 6.81899977
15.74199963 12.41399956 6.81599998
15.74100018 12.41699982 6.80700016
15.79300022 12.14400005 6.57499981
15.79100037 12.15200043 6.57000017
15.75000000 12.37500000 6.42899990
15.74800014 12.38700008 6.42700005
15.75100040 12.33899975 6.85799980
15.74400043 12.37800026 6.83400011
15.74199963 12.38500023 6.82800007
15.73799992 12.40600014 6.83199978
15.73799992 12.41199970 6.81599998
15.73600006 12.41800022 6.80900002
15.78800011 12.14500046 6.57700014
15.78800011 12.14500046 6.56699991
15.74300003 12.33699989 6.86199999
15.74100018 12.34700012 6.85799980
15.73999977 12.35299969 6.85200024
15.73799992 12.36400032 6.84899998
15.73700047 12.36900043 6.84299994
15.73600006 12.37399960 6.83599997
15.72299957 12.44499969 6.87400007
15.72000027 12.46000004 6.87300014
16.67799950 12.13099957 7.77600002
16.67799950 12.13199997 7.76599979
16.67799950 12.13399982 7.75600004
16.67700005 12.13799953 7.74800014
16.67700005 12.13700008 7.73600006
16.67700005 12.13700008 7.72499990
16.67700005 12.13899994 7.71600008
16.67700005 12.13899994 7.70499992
16.67700005 12.14099979 7.69500017
16.67399979 12.12899971 7.77299976
16.67399979 12.13000011 7.76300001
16.67300034 12.13500023 7.71099997
16.67300034 12.13799953 7.70400000
16.67300034 12.14200020 7.69600010
16.67000008 12.08300018 7.77299976
16.67000008 12.08600044 7.73199987
16.66500092 12.13599968 7.70499992
16.66500092 12.13199997 7.69199991
16.65800095 12.11999989 7.81199980
16.65800095 12.12300014 7.80299997
16.65800095 12.11900043 7.78900003
16.66300011 12.07299995 7.74200010
16.66200066 12.07800007 7.73500013
16.66200066 12.08699989 7.73099995
16.66099930 12.09300041 7.72399998
16.66099930 12.09599972 7.71600008
16.65800095 12.12800026 7.69700003
16.65900040 12.11800003 7.67899990
16.63400078 12.37300014 7.56799984
16.63299942 12.38199997 7.56400013
16.65399933 12.11900043 7.81199980
16.65299988 12.12399960 7.80499983
16.65800095 12.07900047 7.73600006
16.65800095 12.08399963 7.72900009
16.65699959 12.09000015 7.72300005
16.65600014 12.09700012 7.71799994
16.65600014 12.10099983 7.71000004
16.65399933 12.12100029 7.69199991
16.65999985 12.06200027 7.61399984
16.65900040 12.06999969 7.60900021
16.62999916 12.37300014 7.56899977
16.62899971 12.38199997 7.56500006
16.64500046 12.11800003 7.81500006
16.64900017 12.08899975 7.72599983
16.64800072 12.09399986 7.71899986
16.64800072 12.09899998 7.71199989
16.64699936 12.10700035 7.70699978
16.64599991 12.11400032 7.70200014
16.64500046 12.13000011 7.68100023
16.64399910 12.13399982 7.67399979
16.65099907 12.07100010 7.61399984
16.64999962 12.07699966 7.60799980
16.62800026 12.30700016 7.57700014
16.62700081 12.30900002 7.56899977
16.62400055 12.34899998 7.56599998
16.62199974 12.36499977 7.56699991
16.64100075 12.08500004 7.71000004
16.63999939 12.09899998 7.70900011
16.63899994 12.10299969 7.70100021
16.63999939 12.09399986 7.68300009
16.63599968 12.13700008 7.67299986
16.64200020 12.07900047 7.61700010
16.64100075 12.08600044 7.61199999
16.62199974 12.28299999 7.55700016
16.62000084 12.30399990 7.56099987
16.61899948 12.31799984 7.56099987
16.61700058 12.33399963 7.56199980
16.61400032 12.36499977 7.57499981
16.63899994 12.05599976 7.70599985
16.63899994 12.05799961 7.69700003
16.63899994 12.06700039 7.69299984
16.63800049 12.07400036 7.68800020
16.63800049 12.07800007 7.67999983
16.63800049 12.07299995 7.66599989
16.63500023 12.10799980 7.64900017
16.63599968 12.09700012 7.63000011
16.63699913 12.08800030 7.61199999
16.61700058 12.28899956 7.55900002
16.61599922 12.30200005 7.55800009
16.61400032 12.32100010 7.56199980
16.60899925 12.36499977 7.58400011
16.60899925 12.37100029 7.57800007
16.63299942 12.03699970 7.71700001
16.63299942 12.04500008 7.71299982
16.63199997 12.05200005 7.70699978
16.63100052 12.05900002 7.70200014
16.63100052 12.05900002 7.69099998
16.63899994 11.98700047 7.60099983
16.62500000 12.12500000 7.66599989
16.62700081 12.10099983 7.63700008
16.62800026 12.09700012 7.62200022
16.62700081 12.09899998 7.61399984
16.60499954 12.32400036 7.73199987
16.60300064 12.33800030 7.73199987
16.60899925 12.28499985 7.55999994
16.59900093 12.38000011 7.58799982
16.62299919 12.05200005 7.86999989
16.62199974 12.05500031 7.84999990
16.62500000 12.03699970 7.71500015
16.63100052 11.98299980 7.59600019
16.61499977 12.13099957 7.66800022
16.61499977 12.13799953 7.66200018
16.61599922 12.12100029 7.63800001
16.61800003 12.10299969 7.61399984
16.61800003 12.10900021 7.60699987
16.59499931 12.33199978 7.73600006
16.59499931 12.33699989 7.72900009
16.59099960 12.36999989 7.74300003
16.60099983 12.27499962 7.55999994
16.60000038 12.28299999 7.55600023
16.61899948 12.04399967 7.87200022
16.61800003 12.05300045 7.86800003
16.61800003 12.05900002 7.86199999
16.61599922 12.07699966 7.84299994
16.62700081 11.97200012 7.59600019
16.62700081 11.97900009 7.59000015
16.61000061 12.14000034 7.66200018
16.61000061 12.14000034 7.65100002
16.61400032 12.10700035 7.61399984
16.61300087 12.11600018 7.61000013
16.59099960 12.32900047 7.73099995
16.59000015 12.33699989 7.72599983
16.58799934 12.35700035 7.73000002
16.58799934 12.35700035 7.71999979
16.59600067 12.27900028 7.56199980
16.61199951 12.03699970 7.87200022
16.61000061 12.05099964 7.87200022
16.60400009 12.11600018 7.85699987
16.60199928 12.14400005 7.65899992
16.60099983 12.14900017 7.65199995
16.60400009 12.12500000 7.62200022
16.60400009 12.11900043 7.60699987
16.60199928 12.13799953 7.61000013
16.58200073 12.33800030 7.71999979
16.58099937 12.34399986 7.71400023
16.59000015 12.26000023 7.57399988
16.58900070 12.27200031 7.56099987
16.59399986 12.11900043 7.86800003
16.59199905 12.14799976 7.64900017
16.59099960 12.15600014 7.64400005
16.59300041 12.13599968 7.61800003
16.59499931 12.12600040 7.59899998
16.59399986 12.13500023 7.59600019
16.57200050 12.34000015 7.71000004
16.57200050 12.34099960 7.69899988
16.58099937 12.26200008 7.57399988
16.57999992 12.26799965 7.56699991
16.59099960 12.11600018 7.88000011
16.59099960 12.12100029 7.87200022
16.59000015 12.13000011 7.86899996
16.58799934 12.15499973 7.64599991
16.58799934 12.15799999 7.63700008
16.59099960 12.12600040 7.60200024
16.59099960 12.12500000 7.59000015
16.58900070 12.14799976 7.59700012
16.56900024 12.33699989 7.71000004
16.56900024 12.33800030 7.69999981
16.57699966 12.26299953 7.56500006
16.58200073 12.13000011 7.87599993
16.58200073 12.13199997 7.86700010
16.58399963 12.11699963 7.60200024
16.57999992 12.15999985 7.62400007
16.58200073 12.13799953 7.59700012
16.58099937 12.14400005 7.59000015
16.57999992 12.16100025 7.59200001
16.56100082 12.33600044 7.69399977
16.56999969 12.25699997 7.56799984
16.57200050 12.13700008 7.88000011
16.57200050 12.14500046 7.87500000
16.57600021 12.10799980 7.60400009
16.56999969 12.16399956 7.63600016
16.56999969 12.16800022 7.62799978
16.56999969 12.16899967 7.61899996
16.57099915 12.16100025 7.60200024
16.57099915 12.15900040 7.59000015
16.56999969 12.16800022 7.58500004
16.56800079 12.18900013 7.59000015
16.55500031 12.31200027 7.67399979
16.55299950 12.32600021 7.67399979
16.56200027 12.24899960 7.57100010
16.56100082 12.25500011 7.56500006
16.56699944 12.14400005 7.88600016
16.56699944 12.14700031 7.87699986
16.57299995 12.09799957 7.60799980
16.56999969 12.12899971 7.62099981
16.56599998 12.16499996 7.63700008
16.56599998 12.16800022 7.61800003
16.56500053 12.17500019 7.61299992
16.56500053 12.17399979 7.60099983
16.56599998 12.16800022 7.58599997
16.56500053 12.17800045 7.58199978
16.55100060 12.30300045 7.65600014
16.55299950 12.29300022 7.62699986
16.55500031 12.27400017 7.60099983
16.55699921 12.25300026 7.57499981
16.55699921 12.25300026 7.56400013
16.56500053 12.17800045 7.44199991
16.55800056 12.14799976 7.88100004
16.56299973 12.11900043 7.63899994
16.56500053 12.09200001 7.60699987
16.56200027 12.12300014 7.61899996
16.55599976 12.18099976 7.58799982
16.55500031 12.18700027 7.58199978
16.55500031 12.19400024 7.57600021
16.55299950 12.20899963 7.57700014
16.54500008 12.28400040 7.62400007
16.54599953 12.27900028 7.60900021
16.54800034 12.25399971 7.57800007
16.54899979 12.25000000 7.56500006
16.55699921 12.17800045 7.43499994
16.54999924 12.14599991 7.87799978
16.54700089 12.18200016 7.73899984
16.54700089 12.18500042 7.73099995
16.55599976 12.10499954 7.62400007
16.55699921 12.09700012 7.60699987
16.50300026 12.59200001 7.92299986
16.50300026 12.59200001 7.91099977
16.54700089 12.18799973 7.57999992
16.54599953 12.19499969 7.57399988
16.54599953 12.20199966 7.56799984
16.54500008 12.20800018 7.56199980
16.54400063 12.21199989 7.55499983
16.54199982 12.23999977 7.56500006
16.54100037 12.24400043 7.55700016
16.54000092 12.24899960 7.55000019
16.54599953 12.14599991 7.88399982
16.55500031 12.07299995 7.61800003
16.55599976 12.06900024 7.60400009
16.55299950 12.09000015 7.60900021
16.49799919 12.58899975 7.91699982
16.49699974 12.59799957 7.91200018
16.54299927 12.18599987 7.58500004
16.54199982 12.19400024 7.58099985
16.54199982 12.19799995 7.57299995
16.54100037 12.20100021 7.56400013
16.54100037 12.20499992 7.55700016
16.54000092 12.21500015 7.55299997
16.53700066 12.24100018 7.55200005
16.53700066 12.24400043 7.54300022
16.53800011 12.13899994 7.88299990
16.49099922 12.57499981 7.94500017
16.49099922 12.57299995 7.93200016
16.48900032 12.59000015 7.91099977
16.53300095 12.20100021 7.57000017
16.53199959 12.20499992 7.56099987
16.53199959 12.20899963 7.55299997
16.53100014 12.21599960 7.54699993
16.53100014 12.22099972 7.54099989
16.52899933 12.23400021 7.53999996
16.52899933 12.23499966 7.52899981
16.48299980 12.57600021 7.94099998
16.48299980 12.57499981 7.92999983
16.48200035 12.57999992 7.92199993
16.48200035 12.57999992 7.91099977
16.48200035 12.58699989 7.90500021
16.52400017 12.20600033 7.55800009
16.52300072 12.21300030 7.55299997
16.52300072 12.21700001 7.54500008
16.52300072 12.22099972 7.53700018
16.52199936 12.22700024 7.53100014
16.52099991 12.23299980 7.52500010
16.47699928 12.58100033 7.92299986
16.47699928 12.58300018 7.91300011
16.51899910 12.21000004 7.55100012
16.51799965 12.21599960 7.54500008
16.51799965 12.22000027 7.53700018
16.51700020 12.22500038 7.53000021
16.51600075 12.23299980 7.52500010
16.51600075 12.23900032 7.51900005
16.46899986 12.57499981 7.91099977
16.46800041 12.57999992 7.90399981
16.50900078 12.21700001 7.53800011
16.50900078 12.22500038 7.53399992
16.50799942 12.22799969 7.52500010
16.50799942 12.23299980 7.51800013
16.50699997 12.23999977 7.51200008
16.50600052 12.24400043 7.50500011
16.49300003 12.36900043 7.44700003
16.46100044 12.57299995 7.90799999
16.45999908 12.57999992 7.90199995
16.50000000 12.23299980 7.52699995
16.50000000 12.23499966 7.51700020
16.50000000 12.23900032 7.51000023
16.49900055 12.24499989 7.50299978
16.49799919 12.24800014 7.49499989
16.48500061 12.36800003 7.45499992
16.48600006 12.36400032 7.44099998
16.45599937 12.57800007 7.90000010
16.49600029 12.22999954 7.52400017
16.49600029 12.23400021 7.51700020
16.49500084 12.23700047 7.50799990
16.49500084 12.24300003 7.50199986
16.49399948 12.24899960 7.49599981
16.49399948 12.25199986 7.48699999
16.49399948 12.24600029 7.44000006
16.44799995 12.56700039 7.89799976
16.44799995 12.57400036 7.89200020
16.48699951 12.23400021 7.51100016
16.48600006 12.24199963 7.50699997
16.48600006 12.24499989 7.49800014
16.48500061 12.25199986 7.49200010
16.48500061 12.25800037 7.48600006
16.48399925 12.26000023 7.47700024
16.48399925 12.26099968 7.44600010
16.48399925 12.26799965 7.44000006
16.45999908 12.46899986 7.54600000
16.43899918 12.57199955 7.88999987
16.47800064 12.24600029 7.49800014
16.47800064 12.24800014 7.48999977
16.47699928 12.25300026 7.48199987
16.47599983 12.25800037 7.47499990
16.47599983 12.26200008 7.44600010
16.47500038 12.27000046 7.44099998
16.45299911 12.46199989 7.55200005
16.45299911 12.46000004 7.53900003
16.43499947 12.57100010 7.89400005
16.43499947 12.57299995 7.88500023
16.47299957 12.24899960 7.49499989
16.47299957 12.24899960 7.48500013
16.47200012 12.25599957 7.47900009
16.46999931 12.27000046 7.45800018
16.47100067 12.27000046 7.44700003
16.46999931 12.27799988 7.44199991
16.44899940 12.45899963 7.54400015
16.42700005 12.56400013 7.88700008
16.46500015 12.23900032 7.49599981
16.46400070 12.24899960 7.48199987
16.46299934 12.25599957 7.47700024
16.46400070 12.25199986 7.46199989
16.46299934 12.26500034 7.46199989
16.46199989 12.27099991 7.45499992
16.46100044 12.27400017 7.44600010
16.45999908 12.28400040 7.44299984
16.44099998 12.45199966 7.54699993
16.44099998 12.45100021 7.53499985
16.41799927 12.56099987 7.88299990
16.45400047 12.26299953 7.46999979
16.45400047 12.26700020 7.46199989
16.45299911 12.27000046 7.45400000
16.45299911 12.27400017 7.44600010
16.45199966 12.27999973 7.44000006
16.43300056 12.44099998 7.53700018
16.41399956 12.55799961 7.91499996
